2.8948,-0.49158,-0.66716
2.8996,-0.47555,-0.66243
2.9006,-0.44939,-0.66212
2.9304,-0.43591,-0.66377
2.9122,-0.42126,-0.66571
2.9313,-0.40503,-0.66474
2.9265,-0.39317,-0.66919
2.9495,-0.38969,-0.66259
2.9994,-0.38938,-0.66258
2.984,-0.37543,-0.66459
2.9667,-0.36035,-0.66629
2.9619,-0.34902,-0.66987
3.0376,-0.34551,-0.66298
2.9916,-0.33568,-0.66912
3.0135,-0.33232,-0.66157
3.051,-0.31135,-0.66534
3.0865,-0.29903,-0.66449
3.0778,-0.28002,-0.66891
3.1094,-0.28563,-0.66014
3.0939,-0.26626,-0.66261
3.1198,-0.24271,-0.66154
2.6747,-0.23526,-0.66679
2.6974,-0.23339,-0.66078
2.609,-0.21078,-0.66653
2.6072,-0.20126,-0.66832
2.7038,-0.18865,-0.66084
2.6697,-0.17967,-0.666
2.6904,-0.16601,-0.66176
2.7247,-0.13775,-0.66337
2.7296,-0.11827,-0.66753
2.8067,-0.11725,-0.66237
2.8029,-0.10641,-0.66265
3.0068,-0.10537,-0.66075
3.0059,-0.097907,-0.66131
2.803,-0.088669,-0.66448
3.0089,-0.087728,-0.66301
2.9737,-0.067689,-0.66968
2.9993,-0.067064,-0.66213
2.9915,-0.056738,-0.66076
2.8128,-0.046585,-0.6697
2.9955,-0.045607,-0.66217
2.9975,-0.026501,-0.66147
3.0054,-0.016342,-0.66339
2.972,-0.0049816,-0.66886
2.9957,-0.0055582,-0.66082
2.9673,0.006772,-0.66728
2.9819,0.027932,-0.66984
2.9998,0.026968,-0.66035
2.9829,0.038285,-0.66933
3.0047,0.03722,-0.6608
2.9831,0.059883,-0.66728
2.9792,0.070115,-0.6651
2.987,0.081034,-0.66564
2.9929,0.09287,-0.66539
2.991,0.10356,-0.66317
2.9684,0.11473,-0.66954
2.9882,0.11277,-0.66081
3.0028,0.12305,-0.6626
2.9743,0.13514,-0.66705
2.9802,0.14569,-0.66628
2.9899,0.15784,-0.66599
2.7403,0.17227,-0.66327
2.7274,0.18475,-0.66961
2.7529,0.18282,-0.66407
2.7255,0.19543,-0.66603
2.7501,0.19336,-0.66027
2.74,0.20861,-0.66637
2.7382,0.21782,-0.6629
2.7165,0.22024,-0.66927
2.7498,0.2285,-0.66284
2.7194,0.23033,-0.66683
2.7585,0.23991,-0.66151
2.7319,0.24213,-0.66658
2.7132,0.25579,-0.66967
2.7339,0.25306,-0.66323
2.7267,0.26879,-0.66897
2.7475,0.26593,-0.66251
2.7277,0.27967,-0.66498
2.7166,0.29437,-0.66946
2.7287,0.29049,-0.66082
2.7291,0.30744,-0.66787
2.7528,0.30462,-0.66239
2.7311,0.31842,-0.66358
2.734,0.32806,-0.66005
2.7228,0.33241,-0.66877
2.7314,0.34283,-0.66666
2.7392,0.35406,-0.66367
2.7193,0.36833,-0.66432
2.7469,0.36574,-0.66027
2.728,0.38067,-0.66074
2.7253,0.39791,-0.66529
2.733,0.40974,-0.66127
2.7169,0.41406,-0.66816
2.7227,0.42709,-0.66255
2.7074,0.43162,-0.66955
2.717,0.44297,-0.66618
2.7018,0.45698,-0.66712
2.719,0.45261,-0.66082
2.7238,0.47093,-0.66653
2.7095,0.48621,-0.66661
2.7219,0.49914,-0.66264
2.7084,0.5044,-0.66973
2.7189,0.51804,-0.66429
2.7178,0.53701,-0.66641
2.7361,0.53243,-0.66079
2.7331,0.55117,-0.6621
3.1861,1.0426,-0.66108
3.1795,1.0539,-0.66871
3.1831,1.0794,-0.66295
3.1709,1.0889,-0.66906
3.1653,1.149,-0.66283
3.1784,1.2715,-0.66544
3.1744,1.3099,-0.66293
3.1819,1.3525,-0.66405
2.6911,1.4138,-0.66152
2.7451,1.4672,-0.66279
2.743,1.4808,-0.66951
-0.8196,-1.8623,-0.65817
-0.80869,-1.8603,-0.65743
-0.79853,-1.8599,-0.65739
-0.78839,-1.8595,-0.65732
-0.81261,-1.7892,-0.65935
-0.72258,-1.7812,-0.65679
-0.71385,-1.7831,-0.65769
-0.79673,-1.7752,-0.65343
-0.78652,-1.774,-0.653
-0.77743,-1.7752,-0.65364
-0.7669,-1.773,-0.65279
-0.75783,-1.7742,-0.65341
-0.72891,-1.7733,-0.65327
-0.7008,-1.7736,-0.65372
-0.73552,-1.7662,-0.65012
-0.85711,-1.7284,-0.65693
-0.84612,-1.7258,-0.65586
-0.80718,-1.7249,-0.65587
-0.79862,-1.7271,-0.65695
-0.78969,-1.7285,-0.65763
2.7551,-1.2065,-0.65122
2.7809,-1.2044,-0.6502
2.8148,-1.2055,-0.65122
2.8868,-1.1716,-0.65427
3.4365,-0.90865,-0.65075
2.8955,-0.53212,-0.65741
2.909,-0.51628,-0.65633
2.9053,-0.49772,-0.65046
2.9265,-0.47227,-0.65746
2.9696,-0.45424,-0.65012
2.961,-0.44383,-0.65333
2.9399,-0.43031,-0.654
2.937,-0.4179,-0.65984
2.986,-0.41758,-0.65984
3.0022,-0.41286,-0.65138
3.0252,-0.38603,-0.65626
3.0098,-0.37221,-0.65827
3.0491,-0.37041,-0.65506
3.0443,-0.35693,-0.65989
3.0595,-0.3525,-0.65053
3.0538,-0.34133,-0.65382
3.096,-0.32916,-0.65529
3.0912,-0.31992,-0.65773
3.1209,-0.30699,-0.65536
3.0967,-0.29473,-0.65342
3.1458,-0.29369,-0.6514
3.0233,-0.2301,-0.65489
2.6676,-0.22051,-0.65552
2.6893,-0.19749,-0.65459
2.7197,-0.18666,-0.65262
2.6885,-0.178,-0.65875
2.7616,-0.17649,-0.65333
3.0143,-0.17498,-0.65151
2.7655,-0.16469,-0.65681
2.7891,-0.16325,-0.65019
3.0143,-0.16303,-0.65391
2.7569,-0.14901,-0.6573
2.7795,-0.14767,-0.65044
2.7902,-0.13615,-0.65522
3.0038,-0.13539,-0.65601
2.796,-0.12572,-0.65835
2.8177,-0.12453,-0.65094
2.9941,-0.12444,-0.65518
2.8158,-0.11574,-0.65161
3.0048,-0.11599,-0.65898
2.8274,-0.10549,-0.65594
3.0208,-0.10402,-0.65018
3.0179,-0.096624,-0.65026
2.8266,-0.087893,-0.65749
3.0209,-0.086598,-0.65193
3.0336,-0.076239,-0.65586
3.0093,-0.066219,-0.6506
3.0191,-0.056229,-0.65351
3.0046,-0.04509,-0.65039
2.982,-0.033464,-0.65908
3.0211,-0.033214,-0.6547
2.9733,-0.022807,-0.65701
3.0066,-0.022629,-0.65123
3.0144,-0.026761,-0.65157
3.0164,-0.016683,-0.65204
3.0106,-0.0060866,-0.65046
3.0213,0.005341,-0.65272
2.9929,0.0172,-0.65925
3.0136,0.016359,-0.65034
3.0283,0.036156,-0.65258
3.0037,0.047428,-0.65968
2.998,0.058467,-0.65711
3.0048,0.068759,-0.6576
3.0049,0.079392,-0.65621
3.0234,0.091402,-0.65907
3.0108,0.10168,-0.65425
3.0128,0.11095,-0.65312
3.0129,0.12059,-0.6513
2.9941,0.13294,-0.65835
3.0188,0.1309,-0.65068
2.9961,0.1432,-0.65662
3.0059,0.15519,-0.65633
3.0539,0.16456,-0.6517
2.761,0.1701,-0.65626
2.7688,0.18025,-0.65575
2.7631,0.19049,-0.65122
2.7559,0.20582,-0.65823
2.7676,0.21592,-0.65844
2.7551,0.22467,-0.6519
2.7792,0.23716,-0.65471
2.7508,0.24993,-0.65559
2.7634,0.26258,-0.65461
2.7495,0.27681,-0.65882
2.7693,0.2737,-0.65198
2.761,0.28859,-0.65756
2.7621,0.30023,-0.65287
2.7519,0.31521,-0.65735
2.7433,0.32346,-0.65075
2.7465,0.33881,-0.65901
2.7626,0.33485,-0.65151
2.7514,0.34957,-0.65527
2.7866,0.3478,-0.65292
2.7659,0.36196,-0.65371
2.746,0.37673,-0.6541
2.7537,0.38879,-0.65009
2.7405,0.39351,-0.658
2.7482,0.40521,-0.65401
2.7607,0.41897,-0.65029
2.7417,0.42307,-0.65648
2.7285,0.43773,-0.65815
2.7485,0.43376,-0.65237
2.7676,0.44591,-0.65173
2.7486,0.45015,-0.65779
2.7305,0.46469,-0.65734
2.7334,0.47532,-0.65134
2.7172,0.48005,-0.65783
2.7391,0.4945,-0.6565
2.7544,0.50873,-0.65243
2.7343,0.51299,-0.65777
2.7429,0.52565,-0.65196
2.74,0.54427,-0.6534
3.1927,0.70161,-0.65382
3.2447,0.85573,-0.65048
3.1945,1.0319,-0.65387
3.1833,1.0658,-0.65395
3.2119,1.0983,-0.65577
3.1848,1.1029,-0.65832
3.1947,1.1313,-0.65229
3.2003,1.1727,-0.65327
3.1859,1.1817,-0.65851
3.1991,1.2121,-0.65175
3.1919,1.2239,-0.65855
3.1939,1.248,-0.65239
3.1848,1.2592,-0.6586
3.1948,1.2881,-0.65131
3.1747,1.295,-0.65477
3.2035,1.331,-0.65291
3.1904,1.3408,-0.65796
3.2117,1.3761,-0.65015
3.1896,1.3822,-0.65292
3.18,1.3936,-0.65861
2.7437,1.4518,-0.65513
2.6905,1.5082,-0.65257
2.7148,1.5068,-0.65226
2.7384,1.5048,-0.65164
-1.914,-2.3931,-0.64213
-1.8989,-2.3955,-0.64307
-0.81613,-1.913,-0.64733
-0.80437,-1.9092,-0.64592
-0.76983,-1.8383,-0.64865
-0.75843,-1.8343,-0.6471
-0.74348,-1.7625,-0.64844
2.8077,-1.2263,-0.64006
2.8335,-1.2001,-0.64809
2.854,-1.1953,-0.64536
2.87,-1.1885,-0.64138
2.8765,-1.1544,-0.64332
2.8258,-1.1237,-0.64699
3.4215,-0.94895,-0.64617
3.3037,-0.67474,-0.64601
2.9118,-0.53646,-0.64341
2.8918,-0.52344,-0.64504
2.9349,-0.52271,-0.64446
2.9081,-0.50823,-0.64453
2.9226,-0.49276,-0.64316
2.9542,-0.47818,-0.64687
2.9763,-0.47389,-0.64039
2.9418,-0.46716,-0.64941
2.9571,-0.46199,-0.64126
2.9935,-0.45031,-0.64388
2.984,-0.43987,-0.64683
3.0146,-0.43686,-0.64205
3.0214,-0.42729,-0.64962
3.028,-0.4093,-0.64516
3.0655,-0.39526,-0.64771
3.0913,-0.39158,-0.64101
3.0365,-0.38089,-0.64624
3.0759,-0.36709,-0.64855
3.1066,-0.36409,-0.64275
3.1392,-0.34855,-0.64301
3.1209,-0.3258,-0.64779
3.1131,-0.31639,-0.64952
3.1467,-0.30384,-0.64781
3.1706,-0.29049,-0.64339
3.0335,-0.22678,-0.64374
2.6873,-0.21851,-0.64864
2.707,-0.21646,-0.64162
3.0316,-0.2162,-0.64615
2.7263,-0.20591,-0.64991
2.7422,-0.20368,-0.6416
3.0689,-0.2029,-0.64439
2.7129,-0.19589,-0.64854
3.0476,-0.19264,-0.6415
2.7432,-0.18509,-0.64633
2.7929,-0.18495,-0.64668
3.0104,-0.1844,-0.64848
3.034,-0.18242,-0.64044
2.7842,-0.1749,-0.6465
3.0399,-0.1732,-0.64389
2.8098,-0.16164,-0.64263
3.0351,-0.16116,-0.64509
3.0439,-0.14647,-0.64993
2.8138,-0.13493,-0.64836
3.0177,-0.13362,-0.64553
3.056,-0.13267,-0.6407
3.0139,-0.12301,-0.64612
3.0511,-0.12211,-0.64107
3.0198,-0.11452,-0.64869
3.0512,-0.11351,-0.64221
3.0493,-0.10303,-0.64299
3.0435,-0.095642,-0.64238
3.0368,-0.075117,-0.64254
3.0368,-0.065595,-0.64318
3.0388,-0.055631,-0.64417
3.0389,-0.032907,-0.64487
3.0346,-0.0247835,-0.643125
3.0458,-0.017205,-0.64501
3.0391,-0.0067043,-0.64324
3.043,0.0046241,-0.64384
3.0402,0.015514,-0.64266
3.0117,0.025969,-0.64929
3.0432,0.03501,-0.64207
3.0157,0.04612,-0.64863
3.0207,0.057152,-0.6487
3.0501,0.055912,-0.64174
3.0246,0.06727,-0.64848
3.0492,0.065846,-0.64036
3.0315,0.077917,-0.64876
3.0276,0.089234,-0.64616
3.0325,0.099837,-0.64565
3.0375,0.10908,-0.64523
3.0356,0.11856,-0.64297
3.0444,0.12885,-0.64305
3.013,0.14072,-0.64708
3.0208,0.15246,-0.64632
2.7799,0.17737,-0.64603
2.767,0.20266,-0.6487
2.7945,0.20058,-0.64337
2.77,0.212,-0.6466
2.7748,0.22193,-0.64474
2.7836,0.23305,-0.64343
2.7726,0.24717,-0.64911
2.7943,0.24435,-0.64246
2.7852,0.25969,-0.64812
2.7804,0.26973,-0.64272
2.7761,0.2849,-0.64944
2.8007,0.28208,-0.64374
2.7752,0.29621,-0.6443
2.7829,0.30745,-0.64166
3.0648,0.30678,-0.64994
3.0915,0.30325,-0.64322
2.7622,0.31079,-0.64815
2.7718,0.32097,-0.64648
3.1178,0.32389,-0.64095
2.7834,0.33138,-0.64517
3.0344,0.3382,-0.64203
3.0135,0.34242,-0.64963
2.7762,0.35704,-0.64473
2.7897,0.36963,-0.64248
2.7717,0.37372,-0.64939
2.7593,0.383,-0.64006
2.7862,0.39705,-0.6412
2.771,0.40171,-0.64869
2.7673,0.41299,-0.64068
2.9203,0.41324,-0.64535
2.7694,0.42985,-0.64672
2.7894,0.42571,-0.64068
2.7666,0.4385,-0.64024
2.9119,0.43808,-0.64347
2.7439,0.45952,-0.64992
2.7706,0.45643,-0.64598
2.8891,0.45226,-0.64282
2.9131,0.46592,-0.64224
2.7563,0.47162,-0.64654
2.7497,0.48862,-0.64846
2.7669,0.48384,-0.64213
2.7764,0.50471,-0.64748
2.8042,0.50159,-0.64389
2.7937,0.51872,-0.64399
2.7697,0.52251,-0.64844
2.7554,0.53897,-0.64695
2.7755,0.53449,-0.64167
2.8192,0.58053,-0.64044
3.2528,0.73536,-0.64675
3.2617,0.7585,-0.64933
3.2447,0.77679,-0.64462
3.2846,0.77423,-0.6431
3.2505,0.79917,-0.64619
3.2762,0.79329,-0.64158
3.2211,0.80397,-0.6498
3.2686,0.8262,-0.64857
3.2572,0.84655,-0.64321
3.1923,0.9945,-0.64922
3.2103,1.0234,-0.64837
3.2122,1.048,-0.64263
3.2038,1.0589,-0.64972
3.2271,1.0756,-0.64139
3.2223,1.0879,-0.64923
3.2006,1.1194,-0.6449
3.2175,1.1111,-0.64005
3.2243,1.1526,-0.64157
3.2073,1.1609,-0.64626
3.2307,1.1946,-0.6421
3.208,1.2009,-0.64536
3.223,1.2297,-0.64243
3.2066,1.2382,-0.64701
3.2049,1.2772,-0.64545
3.2268,1.2708,-0.64229
3.2092,1.3181,-0.64614
3.2276,1.3103,-0.64228
3.231,1.4105,-0.64202
2.751,1.4265,-0.64267
2.7736,1.4235,-0.64153
2.7336,1.432,-0.64515
2.7406,1.491,-0.64513
2.7752,1.5344,-0.64123
-1.9332,-2.3744,-0.63589
-2.0276,-2.3619,-0.63087
-2.0112,-2.3634,-0.63155
-1.9421,-2.3642,-0.63252
-0.88002,-1.744,-0.63898
-0.88739,-1.7389,-0.6367
2.8318,-1.2231,-0.63845
2.8389,-1.2127,-0.63236
2.8814,-1.1799,-0.6362
2.8955,-1.1722,-0.63166
2.8806,-1.1429,-0.63612
2.901,-1.1377,-0.63304
3.0312,-1.1333,-0.63155
2.8734,-1.0819,-0.63938
3.4124,-0.9717,-0.63909
3.3133,-0.69466,-0.63151
3.3037,-0.68379,-0.63777
3.2936,-0.66211,-0.63213
2.8958,-0.61038,-0.63351
2.9097,-0.56441,-0.63955
2.9328,-0.56006,-0.63411
2.9636,-0.55697,-0.63039
2.9156,-0.54663,-0.63751
2.9387,-0.5423,-0.63193
2.9253,-0.53057,-0.6354
2.9599,-0.51875,-0.63909
2.934,-0.50457,-0.63945
3.0031,-0.4996,-0.63292
2.9983,-0.48898,-0.63829
3.0185,-0.48414,-0.6312
3.0386,-0.46767,-0.63135
3.0483,-0.46007,-0.6392
3.0664,-0.45498,-0.6312
3.0194,-0.44655,-0.63794
3.0904,-0.44129,-0.63002
3.0395,-0.43295,-0.63566
3.0328,-0.4217,-0.6399
3.1106,-0.41732,-0.63307
3.0529,-0.40552,-0.63853
3.0932,-0.40353,-0.63534
3.1249,-0.38871,-0.63593
3.1114,-0.37637,-0.6382
3.1343,-0.3723,-0.63043
3.1314,-0.36036,-0.63537
3.1592,-0.34437,-0.63425
3.2054,-0.33241,-0.63578
3.1822,-0.31138,-0.63837
3.2089,-0.30804,-0.63066
3.0543,-0.22413,-0.63504
3.0533,-0.21373,-0.63766
2.8154,-0.19269,-0.63746
3.0683,-0.19034,-0.63256
3.0771,-0.19975,-0.63244
2.801,-0.18241,-0.63593
3.0577,-0.1804,-0.63221
2.7952,-0.17266,-0.6365
3.0577,-0.17101,-0.63423
3.0568,-0.1593,-0.63634
3.0579,-0.14448,-0.63926
3.0777,-0.13111,-0.63171
3.068,-0.11206,-0.63206
3.0612,-0.10161,-0.6317
3.0613,-0.094463,-0.63246
3.027,-0.085345,-0.63938
3.0535,-0.084478,-0.63157
3.0565,-0.074253,-0.63308
3.0634,-0.064943,-0.6353
3.0546,-0.054988,-0.63377
3.0654,-0.044305,-0.63669
3.0538,-0.03259,-0.63422
3.0499,-0.022292,-0.63338
3.0616,-0.027457,-0.63455
3.0646,-0.017626,-0.63524
3.0559,-0.0072536,-0.63305
3.0559,0.0039242,-0.63272
3.0579,0.01465,-0.63271
3.0305,0.02499,-0.63977
3.0599,0.024041,-0.63261
3.0668,0.033915,-0.6335
3.0316,0.044845,-0.63843
3.0688,0.043773,-0.63311
3.0659,0.054459,-0.63135
3.0502,0.076249,-0.63924
3.0719,0.074618,-0.63026
3.0493,0.08749,-0.63738
3.0503,0.097854,-0.63595
3.0553,0.10697,-0.63553
3.0514,0.11626,-0.63285
3.0593,0.12637,-0.6327
3.0396,0.13861,-0.63973
3.0425,0.15001,-0.63781
3.0504,0.16072,-0.63709
3.0926,0.16843,-0.63072
2.8025,0.17513,-0.63924
2.8152,0.19798,-0.6361
2.7975,0.21934,-0.63818
2.8159,0.24146,-0.63565
2.7953,0.25574,-0.63846
2.8234,0.279,-0.63736
2.7926,0.31753,-0.63999
3.1436,0.31994,-0.63379
2.7816,0.34114,-0.63973
3.0893,0.34783,-0.63704
3.115,0.34378,-0.63019
2.7884,0.35231,-0.63618
2.81,0.3935,-0.63585
3.0169,0.3924,-0.6399
2.9461,0.40946,-0.63988
3.0115,0.42927,-0.63249
2.9281,0.43286,-0.63582
2.8029,0.44663,-0.6321
2.7848,0.45126,-0.63859
2.9198,0.45905,-0.6324
2.7687,0.4661,-0.63881
2.7916,0.46222,-0.63374
2.8778,0.47864,-0.63755
2.9007,0.47431,-0.63201
2.9458,0.47333,-0.63175
2.7917,0.48026,-0.63769
2.808,0.49424,-0.63393
2.8874,0.49142,-0.63201
2.8291,0.50862,-0.63146
2.8722,0.50781,-0.63142
2.8186,0.51498,-0.63964
2.8215,0.52629,-0.63221
2.8033,0.53133,-0.63826
2.8904,0.54098,-0.63048
3.2829,0.84064,-0.63887
3.2552,0.87025,-0.63837
3.2264,0.89814,-0.63838
3.2336,1.0412,-0.63847
3.243,1.067,-0.63606
3.2541,1.0953,-0.63077
3.24,1.1047,-0.63639
3.2404,1.144,-0.6366
3.2414,1.184,-0.63604
3.2301,1.2176,-0.6357
3.2232,1.2544,-0.63324
3.247,1.2876,-0.63048
3.2314,1.2967,-0.63505
3.2329,1.3385,-0.63116
3.2171,1.3475,-0.63551
3.196,1.3541,-0.63856
3.2307,1.3946,-0.63415
2.778,1.4111,-0.63549
3.2859,1.4455,-0.6316
2.747,1.4796,-0.63979
2.7723,1.4782,-0.63948
2.8283,1.5172,-0.63413
2.8512,1.514,-0.63299
2.9391,1.5132,-0.63392
2.7904,1.5274,-0.63824
2.8132,1.5244,-0.63722
2.9265,1.5223,-0.63792
-1.9817,-2.3493,-0.62727
-1.9605,-2.3446,-0.62599
-1.943,-2.3443,-0.62608
-0.85612,-1.7876,-0.62659
2.8576,-1.2071,-0.62923
2.8736,-1.2003,-0.62534
2.8923,-1.1945,-0.62208
2.9245,-1.1939,-0.62208
2.9115,-1.1652,-0.62752
2.9105,-1.1283,-0.62715
3.3108,-0.72617,-0.62197
3.2964,-0.71299,-0.6289
3.318,-0.70627,-0.62235
3.3262,-0.68622,-0.6229
3.3118,-0.67455,-0.62803
3.3391,-0.66897,-0.62237
2.929,-0.56916,-0.62566
2.9742,-0.55018,-0.62165
2.9637,-0.53818,-0.62665
2.9896,-0.53411,-0.62145
2.98,-0.52323,-0.62584
2.9695,-0.51216,-0.62983
3.0059,-0.51913,-0.62044
3.029,-0.50526,-0.62064
3.029,-0.49554,-0.62725
3.0491,-0.49048,-0.62006
3.0828,-0.47771,-0.6222
3.0606,-0.46304,-0.62436
3.0914,-0.45074,-0.62466
3.1144,-0.43691,-0.62303
3.0653,-0.42906,-0.62933
3.1212,-0.42893,-0.62974
3.1402,-0.42391,-0.6214
3.1306,-0.41256,-0.62491
3.1171,-0.3994,-0.62807
3.1478,-0.38449,-0.62817
3.2063,-0.35523,-0.62571
3.2244,-0.32809,-0.62634
3.159,-0.2324,-0.62871
3.0799,-0.22174,-0.62731
3.0702,-0.21093,-0.62786
2.8361,-0.1907,-0.62979
3.0959,-0.19718,-0.62288
3.0813,-0.18759,-0.62167
3.0843,-0.17848,-0.62446
3.0785,-0.16892,-0.62512
3.0785,-0.1574,-0.62742
3.0698,-0.1424,-0.62803
3.0602,-0.1203,-0.62913
3.0944,-0.12936,-0.62144
3.0833,-0.11472,-0.620905
3.0829,-0.093353,-0.62329
3.0762,-0.073377,-0.62346
3.0704,-0.064037,-0.62273
3.0753,-0.054382,-0.62436
3.0802,-0.043807,-0.62588
3.0735,-0.032281,-0.62457
3.0745,-0.022117,-0.62486
3.0989,-0.027983,-0.62889
3.0872,-0.018088,-0.62621
3.0814,-0.0078646,-0.62474
3.0786,0.013779,-0.62329
3.0855,0.02306,-0.62431
3.0836,0.032759,-0.62317
3.0885,0.042501,-0.62346
3.0827,0.053004,-0.62106
3.065,0.064249,-0.63
3.072,0.085741,-0.62865
3.0691,0.095872,-0.62634
3.0672,0.10466,-0.62434
3.0702,0.11402,-0.62328
3.0712,0.12375,-0.62156
3.0515,0.13587,-0.62875
3.0839,0.13391,-0.62238
3.0594,0.14731,-0.628
3.0662,0.15782,-0.62706
3.1355,0.35666,-0.62927
3.1525,0.35143,-0.62025
3.0622,0.41173,-0.62586
3.0277,0.42372,-0.62434
3.0175,0.44959,-0.62111
2.9456,0.45504,-0.62721
2.9562,0.46682,-0.62281
2.9113,0.48714,-0.62674
2.9851,0.48231,-0.62196
2.8885,0.50225,-0.62444
2.8904,0.52166,-0.6279
2.8924,0.53261,-0.6201
3.27,1.0479,-0.62418
3.2477,1.0546,-0.62816
3.2626,1.084,-0.62386
3.2605,1.1223,-0.62382
3.2491,1.1327,-0.62992
3.2636,1.1628,-0.62403
3.2475,1.1716,-0.62892
3.2724,1.1889,-0.62007
3.24,1.2065,-0.62958
3.2663,1.2014,-0.6271
3.2596,1.2384,-0.625
3.2386,1.2454,-0.62853
3.2552,1.2757,-0.62423
3.2313,1.3225,-0.6229
3.2606,1.3758,-0.62527
3.2448,1.3849,-0.62953
2.8048,1.3955,-0.62814
2.9255,1.4908,-0.62342
-1.8395,-2.2076,-0.61985
-0.88494,-1.7649,-0.6168
-0.86354,-1.7615,-0.61561
2.916,-1.2273,-0.6194
2.9438,-1.225,-0.61832
2.9478,-1.1896,-0.61975
3.0125,-1.1875,-0.61914
3.0358,-1.1826,-0.6165
3.0546,-1.1759,-0.6127
3.0655,-1.1424,-0.61511
2.9801,-1.1015,-0.61093
3.0282,-1.0686,-0.61302
3.3142,-0.77777,-0.61573
3.3111,-0.75788,-0.61224
3.2996,-0.74577,-0.61984
3.3276,-0.71831,-0.61445
3.3521,-0.70194,-0.61834
3.3756,-0.69531,-0.61192
3.3554,-0.6809,-0.61768
3.3818,-0.67487,-0.61169
3.376,-0.66506,-0.61859
3.2892,-0.65064,-0.61958
3.4024,-0.65897,-0.61239
3.0235,-0.63037,-0.61274
2.9547,-0.59468,-0.61537
2.9979,-0.59372,-0.61467
2.9645,-0.57742,-0.61486
2.9972,-0.56393,-0.61974
3.0145,-0.5581,-0.61253
3.0011,-0.54617,-0.6167
3.027,-0.54186,-0.61135
3.0405,-0.5163,-0.6169
3.0664,-0.51193,-0.61113
3.051,-0.5004,-0.61397
3.0934,-0.48894,-0.61827
3.1164,-0.48406,-0.61138
3.1058,-0.47296,-0.61528
3.1663,-0.45395,-0.61131
3.1182,-0.44665,-0.61838
3.147,-0.43355,-0.61783
3.1709,-0.42894,-0.61047
3.1641,-0.41942,-0.61401
3.1545,-0.4082,-0.61749
3.2256,-0.3793,-0.6192
3.2321,-0.35129,-0.61791
3.1505,-0.22754,-0.61283
3.0967,-0.21875,-0.61739
3.0939,-0.2085,-0.61949
3.1214,-0.20623,-0.61181
3.1166,-0.19467,-0.61362
3.1098,-0.18561,-0.61419
3.1001,-0.17599,-0.61409
3.0894,-0.16635,-0.61363
3.0973,-0.15535,-0.61766
3.0895,-0.1406,-0.61849
3.1199,-0.13915,-0.61118
3.1015,-0.11732,-0.6103
3.0692,-0.10008,-0.61942
3.0957,-0.10894,-0.61007
3.1065,-0.092265,-0.61439
3.0625,-0.083264,-0.61952
3.0998,-0.072545,-0.61456
3.0979,-0.063372,-0.61472
3.094,-0.05375,-0.61434
3.0921,-0.043288,-0.61429
3.0941,-0.03197,-0.61498
3.0961,-0.021944,-0.61549
3.1176,-0.028268,-0.61875
3.0981,-0.018436,-0.61437
3.106,-0.0084754,-0.61599
3.1206,0.0023844,-0.61898
3.1051,0.022046,-0.61449
3.1042,0.031616,-0.61359
3.1091,0.041222,-0.61387
3.1102,0.051667,-0.61305
3.0818,0.062652,-0.61973
3.1024,0.061099,-0.61021
3.0887,0.072868,-0.61999
3.1132,0.071244,-0.61133
3.0907,0.083873,-0.61885
3.0878,0.093864,-0.61658
3.0957,0.11198,-0.61512
3.0987,0.12166,-0.61385
3.1017,0.13133,-0.61246
3.0801,0.14473,-0.61895
3.086,0.15507,-0.6178
3.0851,0.16419,-0.61517
3.1448,0.17318,-0.61196
3.2361,0.34587,-0.61264
3.1818,0.37521,-0.61537
3.1609,0.39173,-0.61678
3.0841,0.40685,-0.61869
3.1026,0.41798,-0.61745
3.1294,0.41349,-0.61122
3.0366,0.44422,-0.61377
3.0704,0.45909,-0.61474
3.0072,0.47733,-0.61568
3.0246,0.49048,-0.61211
2.9671,0.50893,-0.61334
2.8924,0.51346,-0.6174
2.9431,0.51357,-0.61875
2.9164,0.52813,-0.61508
3.2522,1.0284,-0.61133
3.2795,1.0754,-0.61876
3.2767,1.0991,-0.6101
3.2644,1.1093,-0.61606
3.2733,1.1516,-0.61767
3.2729,1.1743,-0.61183
3.2904,1.2198,-0.6153
3.2722,1.2281,-0.61957
3.278,1.2541,-0.61307
3.2652,1.2644,-0.61836
3.2891,1.2993,-0.61187
3.2689,1.3068,-0.61541
3.2388,1.3102,-0.61668
3.2677,1.3473,-0.61128
3.2656,1.3621,-0.61857
2.8862,1.4168,-0.61197
2.9143,1.4154,-0.61173
3.2783,1.41,-0.6146
2.9698,1.4666,-0.61294
2.9989,1.4653,-0.61277
3.0271,1.4634,-0.61231
2.9547,1.4746,-0.6164
2.9397,1.4825,-0.61983
2.9409,1.5242,-0.61208
2.8448,1.5361,-0.61594
2.8729,1.5356,-0.6161
2.9028,1.5357,-0.61661
2.9223,1.5303,-0.61448
2.9336,-1.2071,-0.60799
3.0083,-1.2092,-0.60995
3.0098,-1.1959,-0.60233
3.0688,-1.1673,-0.60778
3.0755,-1.156,-0.60114
3.0602,-1.1269,-0.60556
3.3058,-0.82857,-0.60262
3.3067,-0.80709,-0.60345
3.3573,-0.74438,-0.60025
3.3467,-0.73271,-0.60793
3.3741,-0.72678,-0.60258
3.3473,-0.71094,-0.60746
3.427,-0.70388,-0.60136
3.4039,-0.6895,-0.60635
3.4197,-0.67086,-0.60792
3.4489,-0.66503,-0.60217
3.4268,-0.65239,-0.60564
3.0275,-0.62147,-0.60282
3.0421,-0.60351,-0.60486
3.0153,-0.58771,-0.60767
3.0576,-0.58618,-0.60628
3.025,-0.57036,-0.60681
3.0481,-0.56532,-0.60085
3.0404,-0.55368,-0.60719
3.0751,-0.55061,-0.60366
3.0924,-0.53509,-0.60319
3.1405,-0.50622,-0.60402
3.1403,-0.47923,-0.60456
3.1365,-0.4692,-0.60994
3.1595,-0.46423,-0.60269
3.1863,-0.4486,-0.60316
3.1922,-0.44076,-0.60973
3.2122,-0.43541,-0.60136
3.2007,-0.41636,-0.60921
3.2255,-0.41175,-0.60165
3.2559,-0.34706,-0.6095
3.1625,-0.22398,-0.60148
3.1243,-0.21637,-0.60973
3.1353,-0.20314,-0.60091
3.1324,-0.19187,-0.60312
3.1266,-0.183,-0.60391
3.1159,-0.17347,-0.60359
3.1218,-0.1535,-0.60905
3.1347,-0.13711,-0.60022
3.1034,-0.12733,-0.60929
3.1367,-0.12607,-0.60243
3.1241,-0.11586,-0.60107
3.1261,-0.10779,-0.60256
3.1232,-0.0944445,-0.60344
3.1242,-0.081594,-0.6049
3.1077,-0.071471,-0.60202
3.1185,-0.062612,-0.60498
3.1175,-0.053152,-0.60525
3.1205,-0.042855,-0.60628
3.1264,-0.031676,-0.60781
3.1158,-0.021772,-0.6055
3.1265,-0.028427,-0.6063
3.1197,-0.018892,-0.60481
3.1178,-0.0090046,-0.60426
3.1198,0.0017114,-0.60439
3.1443,0.012001,-0.60933
3.1277,0.021029,-0.60515
3.1298,0.039926,-0.60411
3.1307,0.030491,-0.60513
3.12395,0.054838,-0.60127
3.1289,0.069433,-0.60055
3.1142,0.08209,-0.60999
3.1349,0.080213,-0.6003
3.1094,0.091905,-0.60732
3.1506,0.098938,-0.60068
3.1173,0.10978,-0.60588
3.1251,0.10095,-0.6093
3.1193,0.11929,-0.60442
3.1233,0.12886,-0.60325
3.092,0.14176,-0.60776
3.1106,0.15249,-0.60947
3.1135,0.16169,-0.60775
3.2499,0.3676,-0.60436
3.1828,0.3866,-0.60898
3.232,0.39351,-0.60148
3.1153,0.44864,-0.6011
3.0895,0.45343,-0.60723
3.1041,0.46626,-0.60292
3.0782,0.47107,-0.60886
3.0476,0.4854,-0.60593
3.0189,0.49991,-0.60297
2.9988,0.50543,-0.60959
3.02,0.5193,-0.60647
3.044,0.51425,-0.60074
2.9749,0.5292,-0.6002
2.9615,0.53587,-0.608
2.9913,0.5498,-0.60792
3.0048,0.54294,-0.60011
3.2479,0.95447,-0.60181
3.3242,0.98653,-0.60371
3.2767,1.0604,-0.60936
3.301,1.0928,-0.60669
3.2905,1.1285,-0.60446
3.2764,1.1381,-0.60987
3.2959,1.153,-0.60009
3.2872,1.1647,-0.60657
3.3072,1.196,-0.60246
3.29,1.2048,-0.60701
3.2987,1.2315,-0.60138
3.2989,1.2468,-0.60951
3.2965,1.2867,-0.60552
3.2771,1.3355,-0.60555
3.3073,1.332,-0.60426
3.2883,1.3823,-0.60156
3.2842,1.3966,-0.60827
2.9361,1.4109,-0.60991
3.1371,1.4939,-0.60152
3.1298,1.5065,-0.60702
2.9596,1.5181,-0.60964
2.9887,1.5171,-0.60962
3.0028,1.5664,-0.60315
3.0203,-1.1862,-0.59682
3.0482,-1.1829,-0.59524
3.0669,-1.176,-0.59148
3.0567,-1.1121,-0.59647
3.0688,-1.1028,-0.59093
3.2098,-1.11,-0.59675
3.2238,-1.1007,-0.5912
3.323,-0.86447,-0.59306
3.3313,-0.80065,-0.5982
3.3607,-0.79516,-0.5938
3.3359,-0.78231,-0.59684
3.3413,-0.76004,-0.59999
3.4154,-0.752,-0.59348
3.3827,-0.73793,-0.59456
3.4092,-0.72225,-0.59864
3.4337,-0.71539,-0.59238
3.4486,-0.69644,-0.5943
3.4283,-0.68279,-0.59985
3.5081,-0.67466,-0.59248
3.4695,-0.65746,-0.59453
3.455,-0.64636,-0.59952
3.4716,-0.63814,-0.59094
3.0421,-0.6146,-0.59527
3.0442,-0.59436,-0.5943
3.0663,-0.57837,-0.59704
3.1,-0.57495,-0.5933
3.102,-0.54607,-0.59818
3.1154,-0.52989,-0.59665
3.1501,-0.51668,-0.5997
3.1683,-0.5106,-0.59171
3.1635,-0.50099,-0.59703
3.1942,-0.49679,-0.59156
3.2202,-0.48296,-0.59098
3.1691,-0.47497,-0.59863
3.194,-0.47003,-0.59167
3.2461,-0.46869,-0.59026
3.1391,-0.21317,-0.59908
3.153,-0.20024,-0.59075
3.1365,-0.18001,-0.59201
3.1482,-0.18903,-0.59251
3.1541,-0.16303,-0.59975
3.1376,-0.15127,-0.59834
3.1632,-0.12455,-0.59382
3.1603,-0.11474,-0.59459
3.1428,-0.10626,-0.59186
3.1497,-0.096714,-0.59447
3.1439,-0.080528,-0.59478
3.1507,-0.089966,-0.59539
3.1341,-0.070655,-0.59344
3.1342,-0.061785,-0.59401
3.1372,-0.052511,-0.59512
3.1372,-0.042351,-0.5955
3.1402,-0.031344,-0.59636
3.1324,-0.021602,-0.59473
3.151,-0.028789,-0.59717
3.1882,-0.020072,-0.59054
3.1365,0.00097516,-0.59362
3.1326,0.011109,-0.59234
3.1562,0.029341,-0.59624
3.16,0.02002,-0.59774
3.1455,0.038574,-0.59314
3.1426,0.048659,-0.59151
3.1407,0.057885,-0.59004
3.1486,0.067673,-0.59049
3.1271,0.089819,-0.59704
3.1389,0.10753,-0.59647
3.139,0.11685,-0.59461
3.1361,0.12604,-0.59198
3.1537,0.13724,-0.59336
3.1215,0.14926,-0.59795
3.1303,0.15858,-0.59755
3.1411,0.16886,-0.5972
3.194,0.17827,-0.59139
3.2414,0.43994,-0.59195
3.1309,0.46148,-0.59703
3.0677,0.47976,-0.59894
3.0672,0.53509,-0.59222
3.0471,0.55033,-0.59093
3.243,0.91728,-0.59565
3.2678,0.91102,-0.59166
3.2766,0.94936,-0.5988
3.3006,0.94273,-0.59467
3.3554,0.96795,-0.5919
3.3342,0.97565,-0.59665
3.2973,1.0773,-0.59727
3.3169,1.1082,-0.59308
3.3056,1.119,-0.59919
3.328,1.1345,-0.59012
3.3259,1.1486,-0.59805
3.3294,1.1739,-0.59067
3.3206,1.1858,-0.59707
3.2966,1.2156,-0.59288
3.335,1.2144,-0.59283
3.322,1.2657,-0.59508
3.3038,1.2741,-0.59916
3.3295,1.3093,-0.59337
3.3203,1.3214,-0.59922
3.3172,1.3623,-0.59248
3.3023,1.3722,-0.59694
3.3328,1.4098,-0.59217
2.9873,1.429,-0.59591
3.0013,1.4203,-0.59212
3.0443,1.5393,-0.59223
3.0212,1.5437,-0.59376
3.1268,1.5477,-0.597
3.0147,1.5564,-0.59907
3.0683,-1.199,-0.58508
3.1426,-1.1985,-0.58558
3.0811,-1.1673,-0.58663
3.109,-1.1636,-0.58477
3.2113,-1.1578,-0.58245
3.2393,-1.1532,-0.58011
3.0611,-1.137,-0.58973
3.0936,-1.1349,-0.58883
3.2451,-1.1317,-0.58843
3.1122,-1.1277,-0.58476
3.0911,-1.097,-0.5876
3.3263,-0.93292,-0.58564
3.3286,-0.89596,-0.582
3.322,-0.87052,-0.58491
3.3467,-0.8639,-0.58007
3.3382,-0.85553,-0.58621
3.3315,-0.8312,-0.58712
3.3676,-0.82726,-0.58429
3.3351,-0.81082,-0.58818
3.3598,-0.80415,-0.58288
3.3978,-0.80038,-0.58013
3.3825,-0.78776,-0.5877
3.4176,-0.78321,-0.58416
3.3994,-0.7721,-0.58857
3.4249,-0.76535,-0.58294
3.4389,-0.74484,-0.58725
3.4548,-0.72889,-0.58695
3.4822,-0.72231,-0.58115
3.4533,-0.70744,-0.58504
3.4663,-0.68814,-0.58637
3.5341,-0.68916,-0.58806
3.5566,-0.6814,-0.5807
3.5277,-0.66656,-0.58453
3.4987,-0.65133,-0.58846
3.0643,-0.60911,-0.58935
3.0874,-0.60368,-0.58352
3.1424,-0.58331,-0.58252
3.1135,-0.56783,-0.58494
3.1616,-0.56658,-0.58395
3.1655,-0.53815,-0.58879
3.1905,-0.53287,-0.58236
3.2,-0.50646,-0.58648
3.2192,-0.49161,-0.58465
3.1569,-0.21011,-0.58895
3.1834,-0.20751,-0.58053
3.1785,-0.19771,-0.5821
3.1747,-0.1867,-0.58404
3.1698,-0.17813,-0.58501
3.166,-0.16041,-0.58805
3.1767,-0.16968,-0.58846
3.1533,-0.14901,-0.5875
3.1417,-0.13478,-0.58747
3.1789,-0.12267,-0.58274
3.1672,-0.11279,-0.58164
3.1692,-0.10495,-0.58308
3.1712,-0.095426,-0.58461
3.1595,-0.088527,-0.58284
3.1693,-0.079545,-0.58575
3.1636,-0.061101,-0.58582
3.1538,-0.051837,-0.58422
3.1588,-0.041867,-0.58562
3.1608,-0.03102,-0.58625
3.16325,-0.0252115,-0.586035
3.1736,-0.010302,-0.58733
3.1678,0.00017577,-0.58581
3.159,0.010195,-0.58353
3.1659,0.01894,-0.58448
3.1719,0.028126,-0.58508
3.1768,0.03733,-0.58535
3.1749,0.047309,-0.58395
3.1789,0.05651,-0.58374
3.1867,0.066201,-0.58417
3.1476,0.078148,-0.58877
3.176,0.07638,-0.58043
3.1849,0.086092,-0.58077
3.1487,0.096161,-0.58602
3.1556,0.10512,-0.58585
3.1723,0.11482,-0.58755
3.1606,0.1236,-0.5831
3.1783,0.13465,-0.58444
3.144,0.14652,-0.58887
3.1705,0.14388,-0.58044
3.147,0.15544,-0.58721
3.1588,0.16561,-0.58707
3.805,0.359,-0.58107
3.8047,0.38521,-0.58548
3.2706,0.40759,-0.5857
3.8053,0.41326,-0.58832
3.2517,0.43253,-0.58174
3.2438,0.47981,-0.58245
3.0806,0.52794,-0.58405
3.0682,0.54448,-0.58466
3.3305,0.92409,-0.58241
3.3113,0.93227,-0.58769
3.3672,0.95745,-0.58513
3.354,0.98982,-0.5881
3.3734,0.98144,-0.58301
3.3282,1.0974,-0.58694
3.3628,1.1166,-0.58049
3.3421,1.1245,-0.58467
3.3616,1.155,-0.58082
3.3464,1.1648,-0.58597
3.3535,1.1907,-0.58046
3.3438,1.2024,-0.58656
3.3317,1.2385,-0.58128
3.3145,1.2475,-0.58561
3.3304,1.294,-0.5858
3.3304,1.3358,-0.58006
3.3284,1.3509,-0.58721
3.3473,1.3834,-0.58023
3.3251,1.3904,-0.58313
3.1122,1.4504,-0.5819
3.1158,1.4679,-0.58972
3.1247,1.5141,-0.58272
3.1218,1.529,-0.58898
3.1005,1.5775,-0.58092
3.143,-1.1844,-0.5777
3.1655,-1.1783,-0.57453
3.1907,-1.173,-0.57186
3.2224,-1.1699,-0.57044
3.259,-1.1456,-0.57593
3.2405,-1.1159,-0.57906
3.2415,-1.102,-0.57086
3.1865,-1.0745,-0.57478
3.3457,-0.91155,-0.57051
3.3524,-0.88906,-0.57711
3.3667,-0.8796,-0.57023
3.3638,-0.85524,-0.57359
3.4,-0.85112,-0.57079
3.3505,-0.8458,-0.57871
3.3828,-0.84083,-0.57514
3.4085,-0.83407,-0.5701
3.397,-0.82153,-0.57995
3.4178,-0.81362,-0.57377
3.4588,-0.81015,-0.57138
3.4272,-0.79443,-0.57549
3.4662,-0.79042,-0.57255
3.4355,-0.77467,-0.57705
3.4649,-0.7685,-0.57208
3.4533,-0.75907,-0.57774
3.4817,-0.75261,-0.57239
3.5063,-0.73417,-0.57829
3.5356,-0.72767,-0.57272
3.5231,-0.71823,-0.57779
3.5476,-0.71072,-0.57112
3.5447,-0.70114,-0.57999
3.5721,-0.69414,-0.57362
3.5724,-0.67229,-0.57195
3.5579,-0.66025,-0.57849
3.1905,-0.61141,-0.57579
3.1655,-0.5982,-0.57818
3.1847,-0.56086,-0.57735
3.2117,-0.55566,-0.57142
3.2242,-0.52883,-0.57758
3.2259,-0.50131,-0.57982
3.1972,-0.18413,-0.57455
3.1943,-0.17578,-0.57592
3.1983,-0.1673,-0.57869
3.1905,-0.1583,-0.57891
3.172,-0.14684,-0.57715
3.2024,-0.13163,-0.57146
3.1936,-0.12074,-0.57133
3.1936,-0.11134,-0.57268
3.1888,-0.10345,-0.57268
3.18,-0.093847,-0.57196
3.1869,-0.087437,-0.57406
3.1811,-0.078318,-0.57367
3.1782,-0.060242,-0.57435
3.1929,-0.069048,-0.57683
3.1724,-0.051171,-0.57359
3.1764,-0.041356,-0.57475
3.1852,-0.030698,-0.57679
3.1859,-0.023629,-0.575927
3.1863,-0.010849,-0.57538
3.1874,-0.00058719,-0.57532
3.1874,0.017882,-0.57442
3.1757,0.026849,-0.57137
3.1964,0.035974,-0.57487
3.1993,0.045846,-0.57451
3.1984,0.054849,-0.57329
3.1994,0.064273,-0.5723
3.2015,0.074518,-0.57126
3.1879,0.10312,-0.57836
3.1752,0.11178,-0.57391
3.1735,0.15269,-0.5788
3.2068,0.15018,-0.57159
3.7836,0.32822,-0.57376
3.8318,0.35234,-0.57089
3.2613,0.38906,-0.57692
3.261,0.42496,-0.57127
3.6337,0.46342,-0.57058
3.26,0.47278,-0.5738
3.2556,0.49962,-0.57068
3.2393,0.50685,-0.57908
3.2384,0.51492,-0.57217
3.1424,0.5464,-0.57113
3.6426,0.54065,-0.5755
3.1212,0.55265,-0.57767
3.6313,0.5914,-0.57134
3.6265,0.61191,-0.5734
3.6187,0.63249,-0.57403
3.6498,0.64642,-0.57098
3.6254,0.65454,-0.57813
3.3789,0.94689,-0.57832
3.372,0.96704,-0.57369
3.3627,1.1405,-0.57283
3.3623,1.1786,-0.57414
3.3578,1.2173,-0.57077
3.3572,1.2325,-0.57856
3.3551,1.2721,-0.57532
3.3386,1.2815,-0.57974
3.3433,1.3251,-0.57512
3.3734,1.3616,-0.5706
3.3659,1.3747,-0.57653
3.3715,1.4191,-0.57186
3.1488,1.4933,-0.57421
3.1844,1.4937,-0.57491
3.2121,1.4902,-0.57382
3.1425,1.5065,-0.57973
3.1313,1.5599,-0.5742
3.1484,1.5518,-0.57115
3.1194,1.5705,-0.57834
3.2375,-1.1607,-0.56547
3.2591,-1.1312,-0.56769
3.2629,-1.1181,-0.56021
3.2573,-1.0931,-0.56572
3.3317,-0.96802,-0.56752
3.3414,-0.95713,-0.56031
3.3743,-0.90575,-0.56664
3.3924,-0.87291,-0.56551
3.4191,-0.8663,-0.56086
3.4209,-0.84311,-0.56484
3.4341,-0.82715,-0.56493
3.4767,-0.80128,-0.56439
3.5148,-0.79674,-0.56109
3.4908,-0.78303,-0.56666
3.5192,-0.77632,-0.56137
3.5,-0.76336,-0.56805
3.5255,-0.75602,-0.56203
3.5217,-0.74835,-0.56907
3.5472,-0.74093,-0.56285
3.5592,-0.71987,-0.56591
3.602,-0.71563,-0.56251
3.573,-0.70326,-0.56449
3.6014,-0.68734,-0.56746
3.2011,-0.6031,-0.56685
3.177,-0.59026,-0.56941
3.2059,-0.5853,-0.56414
3.2358,-0.56986,-0.56792
3.2227,-0.18165,-0.56548
3.213,-0.17311,-0.56544
3.213,-0.1646,-0.56736
3.215,-0.15615,-0.56957
3.1925,-0.14472,-0.56706
3.6724,-0.14254,-0.56656
3.2209,-0.12961,-0.56072
3.6391,-0.11778,-0.56448
3.2123,-0.086286,-0.56466
3.5508,-0.085393,-0.56854
3.2134,-0.068099,-0.56639
3.2057,-0.030366,-0.56633
3.2009,-0.021058,-0.56538
3.1986,0.083829,-0.56918
3.2055,0.10066,-0.56761
3.1763,0.13102,-0.56985
3.2313,0.14722,-0.56234
3.6538,0.45558,-0.56097
3.6592,0.47636,-0.56774
3.2562,0.48199,-0.56546
3.2556,0.50773,-0.56405
3.6649,0.53257,-0.56693
3.6495,0.55062,-0.56886
3.6341,0.56997,-0.5692
3.6584,0.56201,-0.56131
3.6585,0.58385,-0.56417
3.6567,0.60481,-0.56695
3.6771,0.61781,-0.56103
3.647,0.62507,-0.56744
3.6626,0.63617,-0.56159
3.678,0.65987,-0.56714
3.7054,0.65192,-0.5604
3.3872,1.1187,-0.56125
3.3778,1.1305,-0.56762
3.3833,1.1555,-0.56216
3.3812,1.1699,-0.56982
3.3768,1.2087,-0.56665
3.3976,1.2006,-0.56282
3.3869,1.2526,-0.56615
3.3668,1.2609,-0.56994
3.3727,1.3047,-0.56587
3.3498,1.3117,-0.56887
3.3892,1.3517,-0.56627
3.386,1.3922,-0.56016
3.3656,1.4002,-0.56342
3.2121,1.4739,-0.56688
3.3384,1.5242,-0.56267
3.1734,1.5474,-0.56974
3.2275,1.5813,-0.56203
1.05,3.4035,-0.56826
3.256,-1.1776,-0.5505
3.2488,-1.1502,-0.55971
3.288,-1.1491,-0.55949
3.3039,-1.1398,-0.55451
3.3338,-1.1352,-0.55221
3.4236,-1.1349,-0.55297
3.2815,-1.1099,-0.55571
3.2572,-1.0789,-0.55732
3.3177,-1.0698,-0.55252
3.2548,-1.041,-0.55496
3.3302,-1.0361,-0.55276
3.3604,-0.9704,-0.5522
3.3483,-0.94541,-0.55252
3.3855,-0.94188,-0.55051
3.3675,-0.92827,-0.55962
3.3838,-0.91906,-0.55342
3.4181,-0.91446,-0.55058
3.3886,-0.89609,-0.55986
3.4191,-0.89045,-0.55612
3.4477,-0.88414,-0.55188
3.4572,-0.86228,-0.55826
3.4829,-0.85506,-0.55315
3.4475,-0.83632,-0.55989
3.5199,-0.8266,-0.55314
3.4501,-0.81787,-0.55782
3.535,-0.81076,-0.55309
3.5375,-0.78862,-0.55476
3.5506,-0.77003,-0.55647
3.5751,-0.76216,-0.55018
3.5491,-0.74812,-0.55552
3.5746,-0.73374,-0.55685
3.6275,-0.70784,-0.55574
3.7552,-0.68608,-0.55047
3.2281,-0.57901,-0.55734
3.5802,-0.084073,-0.55777
3.3101,0.23409,-0.55001
3.8557,0.27164,-0.55923
3.6539,0.46514,-0.55365
3.2588,0.47284,-0.55411
3.2592,0.49047,-0.55964
3.6515,0.49137,-0.55354
3.2719,0.50032,-0.55565
3.2683,0.51851,-0.55918
3.6519,0.51114,-0.55912
3.2771,0.52825,-0.5537
3.6578,0.5203,-0.55303
3.6406,0.53789,-0.55479
3.666,0.55148,-0.55035
3.6604,0.57226,-0.55235
3.6761,0.59583,-0.55842
3.6976,0.6088,-0.55275
3.7385,0.62375,-0.55142
3.7083,0.63137,-0.55799
3.7336,0.64398,-0.55367
3.7726,0.6597,-0.55061
3.7443,0.66787,-0.55734
3.3994,1.1077,-0.5554
3.4144,1.1355,-0.55202
3.4031,1.147,-0.55793
3.4073,1.1885,-0.55677
3.3945,1.2241,-0.55215
3.3884,1.2376,-0.5587
3.4101,1.2711,-0.55043
3.3955,1.2816,-0.55519
3.3791,1.2913,-0.55956
3.4013,1.3241,-0.55376
3.3847,1.3338,-0.55797
3.3927,1.3785,-0.55421
3.4203,1.4324,-0.55229
3.3439,1.5098,-0.55686
3.3455,1.5521,-0.55222
3.2385,1.5697,-0.55763
3.3004,1.5652,-0.55676
3.3346,1.5641,-0.55681
3.2779,1.5716,-0.55894
3.2776,-1.1705,-0.54688
3.3233,-1.1715,-0.54789
3.343,-1.1633,-0.54371
3.4461,-1.1271,-0.54885
3.4517,-1.1138,-0.54151
3.4582,-1.093,-0.54781
3.3362,-1.0613,-0.54766
3.3543,-1.0292,-0.54878
3.3841,-1.0238,-0.54578
3.4588,-1.0168,-0.54221
3.4725,-0.99723,-0.54999
3.3805,-0.96219,-0.54703
3.4016,-0.9541,-0.54197
3.4132,-0.93556,-0.54655
3.4514,-0.9318,-0.54441
3.4458,-0.90791,-0.54633
3.483,-0.90359,-0.54371
3.4849,-0.87974,-0.5491
3.5049,-0.87095,-0.543
3.5105,-0.84812,-0.54827
3.5343,-0.84011,-0.54257
3.5407,-0.81795,-0.5467
3.575,-0.81214,-0.54258
3.5635,-0.80374,-0.54788
3.5881,-0.79572,-0.54184
3.5679,-0.78201,-0.54972
3.6151,-0.75727,-0.54651
3.6465,-0.75039,-0.54111
3.752,-0.71579,-0.54297
3.7678,-0.69498,-0.54554
3.768,-0.67543,-0.54078
3.3011,0.19099,-0.54814
3.6713,0.42768,-0.54441
3.6622,0.44625,-0.54918
3.6573,0.45504,-0.54115
3.6579,0.47352,-0.54813
3.653,0.48071,-0.54096
3.6516,0.50003,-0.54634
3.2787,0.51006,-0.54968
3.6676,0.53033,-0.54714
3.6807,0.56345,-0.54375
3.7158,0.57771,-0.54121
3.6906,0.58599,-0.54893
3.716,0.59937,-0.54401
3.755,0.61376,-0.54235
3.759,0.63537,-0.54629
3.7795,0.64775,-0.54012
3.8028,0.67277,-0.54706
3.2476,0.75656,-0.54852
3.4482,1.1161,-0.54219
3.4285,1.125,-0.54661
3.4556,1.1586,-0.54211
3.4358,1.1674,-0.54635
3.4039,1.172,-0.54821
3.4335,1.2066,-0.54407
3.4191,1.2173,-0.54911
3.4237,1.2602,-0.54544
3.4343,1.3044,-0.54519
3.4114,1.3118,-0.54828
3.427,1.3594,-0.54624
3.4067,1.3677,-0.54964
3.4321,1.4038,-0.54032
3.4271,1.4185,-0.54648
3.4841,1.4683,-0.542
3.361,1.5249,-0.54177
3.3475,1.5359,-0.54588
3.4547,1.5322,-0.54597
3.3326,1.5886,-0.54193
3.3126,1.5964,-0.54459
-1.9422,-2.4149,-0.53675
-1.9518,-2.4053,-0.53401
3.3543,-1.1522,-0.53787
3.3796,-1.1457,-0.53461
3.4217,-1.1444,-0.53439
3.4536,-1.1396,-0.53212
3.445,-1.0967,-0.53191
3.4372,-1.0718,-0.5354
3.3954,-1.0361,-0.53337
3.4876,-1.0105,-0.53863
3.525,-1.0063,-0.53647
3.5444,-0.99698,-0.53095
3.451,-0.97695,-0.53696
3.4313,-0.94818,-0.5384
3.46,-0.94182,-0.53452
3.4687,-0.92237,-0.53825
3.5002,-0.91647,-0.53461
3.5317,-0.91036,-0.53082
3.4983,-0.89357,-0.53693
3.5355,-0.88883,-0.53403
3.5354,-0.86453,-0.5387
3.5669,-0.85813,-0.53443
3.5666,-0.83392,-0.53829
3.5961,-0.82688,-0.53335
3.6016,-0.80443,-0.53692
3.6127,-0.78754,-0.53568
3.6421,-0.78021,-0.53022
3.7943,-0.76052,-0.53461
3.7653,-0.74682,-0.53934
3.7966,-0.73916,-0.53329
3.8163,-0.72078,-0.53485
3.7823,-0.70807,-0.53654
3.7854,-0.68503,-0.53673
3.7768,-0.66405,-0.53037
3.2322,-0.24749,-0.53197
3.6337,0.051968,-0.53066
3.8302,0.26223,-0.53933
3.6709,0.38889,-0.53056
3.6597,0.43563,-0.53548
3.6574,0.46277,-0.53506
3.6512,0.48895,-0.53357
3.6506,0.50808,-0.53918
3.6757,0.50021,-0.5309
3.6741,0.51979,-0.53579
3.7045,0.53362,-0.53229
3.6735,0.54091,-0.53935
3.7019,0.55467,-0.53521
3.7371,0.5687,-0.53268
3.7791,0.58419,-0.53062
3.7422,0.59104,-0.5365
3.7793,0.6049,-0.53451
3.7746,0.62504,-0.53714
3.8194,0.64124,-0.53509
3.8497,0.65391,-0.5316
3.8272,0.66358,-0.53955
3.8613,0.6783,-0.53511
3.3877,0.78156,-0.53275
3.3796,0.80039,-0.53054
3.4275,1.0944,-0.53028
3.4595,1.1444,-0.53488
3.4667,1.1867,-0.5347
3.4394,1.1931,-0.53743
3.4633,1.2267,-0.53008
3.4526,1.2388,-0.53569
3.4298,1.2466,-0.53904
3.4478,1.2772,-0.53286
3.4351,1.2886,-0.53792
3.4382,1.331,-0.53383
3.4317,1.3448,-0.53987
3.4702,1.3857,-0.53318
3.4489,1.3939,-0.53636
3.4974,1.4567,-0.53747
3.4575,1.516,-0.53965
3.519,1.5509,-0.53031
3.3546,1.5644,-0.53307
3.5126,1.5658,-0.53585
3.3454,1.5774,-0.53785
1.5351,3.4487,-0.5337
3.4189,-1.1679,-0.5248
3.4395,-1.1594,-0.52063
3.4508,-1.1235,-0.52346
3.4504,-1.0834,-0.52457
3.4718,-1.075,-0.52009
3.4445,-1.0592,-0.52826
3.4564,-1.048,-0.52194
3.4129,-1.0268,-0.52805
3.4427,-1.021,-0.52489
3.4763,-1.016,-0.52229
3.4493,-0.96227,-0.52767
3.5182,-0.95211,-0.52194
3.483,-0.93376,-0.5295
3.5518,-0.92301,-0.52316
3.5451,-0.89956,-0.5237
3.5661,-0.88223,-0.52977
3.5899,-0.87383,-0.5242
3.5945,-0.85065,-0.52934
3.6298,-0.84472,-0.52544
3.8043,-0.84023,-0.52396
3.6603,-0.83749,-0.52057
3.8117,-0.81707,-0.52822
3.8084,-0.79222,-0.52959
3.8161,-0.776755,-0.5235
3.8073,-0.74918,-0.52558
3.8037,-0.72683,-0.52312
3.8165,-0.7073,-0.52334
3.8107,-0.69982,-0.52962
3.7953,-0.67365,-0.52655
3.2348,-0.3414,-0.52319
3.6789,0.37138,-0.52401
3.6553,0.39673,-0.52133
3.658,0.41607,-0.5287
3.6522,0.42448,-0.52098
3.6529,0.444,-0.52729
3.6676,0.45333,-0.52383
3.6633,0.47116,-0.52988
3.6761,0.48112,-0.52511
3.7036,0.49258,-0.52296
3.6982,0.5116,-0.52737
3.7305,0.52547,-0.52423
3.7681,0.561,-0.52565
3.8024,0.57508,-0.52231
3.8202,0.59845,-0.52925
3.8505,0.61111,-0.52586
3.8448,0.63211,-0.52747
3.3375,0.72709,-0.52688
3.3809,0.74515,-0.52393
3.3873,0.76847,-0.52302
3.3801,0.78741,-0.52117
3.1681,0.99018,-0.52186
3.4821,1.1208,-0.5231
3.4652,1.1308,-0.52799
3.4821,1.1605,-0.52195
3.4698,1.1721,-0.52749
3.4535,1.2074,-0.52075
3.4796,1.2565,-0.52381
3.454,1.2633,-0.52659
3.4831,1.2988,-0.52026
3.451,1.3195,-0.52896
3.4749,1.3122,-0.52605
3.4843,1.3578,-0.52155
3.4603,1.3651,-0.5243
3.4696,1.4283,-0.52548
3.4938,1.4211,-0.52291
3.4372,1.4729,-0.52241
3.4148,1.4804,-0.52503
3.5299,1.538,-0.52556
3.412,1.5993,-0.5215
3.4391,1.5942,-0.52004
3.4611,-1.1511,-0.51657
3.4771,-1.1409,-0.51143
3.5221,-1.1397,-0.51131
3.4742,-1.1157,-0.51951
3.4853,-1.0416,-0.5186
3.4999,-1.031,-0.51267
3.5003,-1.0082,-0.51787
3.5377,-1.0038,-0.51568
3.5618,-0.9956,-0.51104
3.6787,-0.9968,-0.51293
3.5966,-0.96668,-0.51293
3.5479,-0.94543,-0.51802
3.5671,-0.93587,-0.51217
3.5834,-0.91657,-0.51927
3.5958,-0.90522,-0.51198
3.5766,-0.89309,-0.51968
3.6224,-0.86729,-0.52
3.651,-0.85966,-0.51501
3.8333,-0.85659,-0.5147
3.833,-0.8317,-0.51813
3.8408,-0.79417,-0.5115
3.8489,-0.77181,-0.51432
3.8344,-0.7634,-0.51897
3.8289,-0.73939,-0.51789
3.8515,-0.72965,-0.51024
3.8301,-0.71798,-0.51604
3.8264,-0.69553,-0.51339
3.8166,-0.6875,-0.51894
3.8469,-0.67931,-0.51209
3.8148,-0.66385,-0.5179
3.2827,-0.58063,-0.51298
3.2515,-0.49508,-0.51656
3.2446,-0.44996,-0.51093
3.2414,-0.38349,-0.51816
3.237,-0.25894,-0.51276
3.6504,0.082826,-0.51201
3.6618,0.0952655,-0.51149
3.6253,0.13651,-0.51226
3.6701,0.34473,-0.51921
3.6692,0.35284,-0.51387
3.6485,0.37697,-0.51314
3.6702,0.38841,-0.51032
3.6495,0.40507,-0.51392
3.664,0.43481,-0.5161
3.6837,0.44453,-0.51351
3.7092,0.45496,-0.51174
3.6765,0.46192,-0.51924
3.6952,0.47243,-0.51553
3.7246,0.48393,-0.51373
3.7242,0.50354,-0.51914
3.7575,0.51732,-0.51619
3.8016,0.5326,-0.51467
3.7962,0.55269,-0.51796
3.8255,0.56585,-0.51386
3.8549,0.5779,-0.51063
3.8337,0.58764,-0.51936
3.864,0.60006,-0.51602
3.8681,0.62252,-0.51939
3.3503,0.71734,-0.51942
3.386,0.7335,-0.5151
3.3877,0.75562,-0.51349
-0.16143,1.0274,-0.51135
3.4924,1.1086,-0.517
3.4906,1.1477,-0.5157
3.4818,1.2013,-0.51826
3.5225,1.2392,-0.51652
3.496,1.2461,-0.51929
3.5466,1.2891,-0.51688
3.5153,1.2942,-0.5187
3.6581,1.3383,-0.5158
3.6859,1.3311,-0.51315
3.536,1.3441,-0.51647
3.5887,1.347,-0.51845
3.621,1.3419,-0.51678
3.5074,1.35,-0.51856
3.621,1.3851,-0.51011
3.595,1.3925,-0.51272
3.5015,1.4072,-0.51735
3.5773,1.4028,-0.51669
3.5721,1.4424,-0.51235
3.4542,1.463,-0.51875
3.5136,1.5133,-0.516
3.5091,1.5725,-0.51317
3.4583,1.5852,-0.51706
3.499,1.5859,-0.51786
3.5409,-1.1301,-0.5065
3.5568,-1.1194,-0.50114
3.6525,-1.0923,-0.50876
3.6513,-1.0762,-0.50012
3.6318,-1.0456,-0.50531
3.5212,-1.0222,-0.50782
3.5368,-1.0117,-0.50193
3.698,-0.98658,-0.50707
3.7327,-0.98016,-0.50361
3.5872,-0.94946,-0.5023
3.6331,-0.94641,-0.5009
3.6475,-0.9268,-0.50724
3.6724,-0.91811,-0.502
3.6225,-0.89726,-0.50705
3.8425,-0.75084,-0.50921
3.8554,-0.73914,-0.50017
3.8585,-0.71698,-0.50007
3.8507,-0.70794,-0.50791
3.8605,-0.6879,-0.50722
3.8576,-0.66768,-0.50205
3.269,-0.51542,-0.50527
3.2612,-0.36221,-0.50091
3.2593,-0.32944,-0.50157
3.2613,-0.29506,-0.50244
3.2535,-0.28419,-0.5057
3.2526,-0.27565,-0.50923
3.2555,-0.23842,-0.50863
3.6555,0.10838,-0.50758
3.6516,0.1167,-0.50495
3.6536,0.13279,-0.50112
3.6574,0.33455,-0.5031
3.6614,0.36863,-0.50166
3.6654,0.3967,-0.50321
3.6978,0.40888,-0.50202
3.6633,0.41544,-0.50963
3.6937,0.42766,-0.50789
3.7095,0.43677,-0.50469
3.7311,0.44656,-0.5023
3.721,0.46448,-0.50695
3.7515,0.4759,-0.50531
3.7897,0.48872,-0.50439
3.7442,0.49458,-0.5098
3.7864,0.50927,-0.50829
3.8061,0.52101,-0.5029
3.8095,0.54218,-0.50778
3.8536,0.55717,-0.50605
3.8771,0.56818,-0.50193
3.1737,0.92885,-0.50568
3.2074,0.98174,-0.50153
-0.17313,1.01675,-0.50478
3.2429,1.0146,-0.50183
3.3069,1.0417,-0.50036
-0.20899,1.075,-0.50051
-0.13816,1.0748,-0.50149
-0.153035,1.0863,-0.507805
-0.14419,1.0804,-0.50462
3.4847,1.0908,-0.50773
-0.12548,1.125,-0.50985
3.6609,1.3828,-0.50974
3.6636,1.4083,-0.50021
3.6032,1.4199,-0.50393
3.6394,1.4165,-0.50311
3.5799,1.4281,-0.50683
3.5158,1.4793,-0.50319
3.5518,1.5377,-0.50116
3.5319,1.5469,-0.50421
3.5228,1.5608,-0.5091
3.5207,1.603,-0.50128
3.5069,1.6147,-0.50518
3.5682,-1.1459,-0.49713
3.587,-1.1359,-0.49233
3.6255,-1.1319,-0.49069
3.6358,-1.1119,-0.49806
3.6459,-1.099,-0.49153
3.6451,-1.0587,-0.49072
3.6399,-1.0324,-0.49804
3.5761,-1.0076,-0.49996
3.6002,-0.99904,-0.49532
3.7539,-0.97011,-0.49788
3.6619,-0.93874,-0.49649
3.28545,-0.5562,-0.49476
3.3074,-0.52053,-0.49267
3.3147,-0.50216,-0.49039
3.2741,-0.46108,-0.49214
3.2751,-0.45328,-0.49831
3.2602,-0.36971,-0.49621
3.273,-0.34849,-0.49433
3.2769,-0.2898,-0.4918
3.2662,-0.2789,-0.49446
3.2554,-0.26979,-0.49615
3.274,-0.25012,-0.49201
3.2701,-0.24196,-0.49439
3.2905,-0.21605,-0.49191
3.2866,-0.20794,-0.49382
3.6748,0.087924,-0.49825
3.6817,0.096019,-0.49773
3.6699,0.10473,-0.49387
3.6808,0.11326,-0.49365
3.6587,0.14961,-0.4971
3.5895,0.20787,-0.49882
3.6653,0.34324,-0.49934
3.69,0.36172,-0.49261
3.6802,0.37953,-0.49842
3.7117,0.39138,-0.49727
3.7216,0.40102,-0.49247
3.7165,0.41961,-0.49839
3.7549,0.434685,-0.49592
3.7429,0.45592,-0.49758
3.7933,0.45055,-0.49251
3.7842,0.46844,-0.49765
3.8107,0.47959,-0.49488
3.8383,0.49194,-0.49108
3.8075,0.50005,-0.49899
3.8467,0.51415,-0.49672
3.8909,0.52825,-0.49558
3.8316,0.5328,-0.4989
3.8787,0.54793,-0.49763
3.1889,0.94196,-0.49408
3.2466,0.96568,-0.49305
3.2209,0.97194,-0.49619
3.2729,0.9954,-0.49177
3.2659,1.0075,-0.49829
3.3084,1.0277,-0.4929
-0.16632,1.0341,-0.49434
-0.17784,1.0408,-0.49808
-0.15774,1.0575,-0.49139
-0.20291,1.0713,-0.49852
-0.20046,1.0991,-0.49446
-0.19395,1.0927,-0.49107
-0.14999,1.0925,-0.49162
-0.12488,1.1262,-0.49231
-0.10801,1.1245,-0.49165
3.5356,1.4701,-0.49997
3.6078,1.5078,-0.49111
3.5708,1.5892,-0.49717
3.5471,1.5968,-0.49948
3.6528,-1.1241,-0.4871
3.6734,-1.1142,-0.48235
3.657,-1.0864,-0.48512
3.6879,-1.0794,-0.48182
3.6694,-1.0499,-0.48623
3.6965,-1.0417,-0.4821
3.6364,-1.016,-0.4889
3.6663,-1.0087,-0.48511
3.6176,-0.98858,-0.4895
3.3027,-0.5903,-0.4891
3.3257,-0.58315,-0.48234
3.3082,-0.5721,-0.48728
3.2942,-0.55059,-0.48195
3.2977,-0.52653,-0.48435
3.3108,-0.51081,-0.48182
3.2985,-0.48109,-0.48324
3.2907,-0.47188,-0.48841
3.3095,-0.45633,-0.48649
3.2883,-0.42107,-0.48782
3.2981,-0.4297,-0.48424
3.2953,-0.40568,-0.48187
3.2816,-0.39636,-0.48469
3.2857,-0.37152,-0.48368
3.2945,-0.36534,-0.48957
3.269,-0.35526,-0.4895
3.2788,-0.34147,-0.48242
3.2759,-0.33306,-0.48644
3.3004,-0.31878,-0.48252
3.2867,-0.30841,-0.48487
3.2818,-0.29948,-0.48823
3.2964,-0.28479,-0.48172
3.2876,-0.27424,-0.48469
3.2709,-0.26487,-0.48531
3.268,-0.25649,-0.48822
3.2718,-0.23655,-0.48085
3.27425,-0.22506,-0.48557
3.3129,-0.20454,-0.4842
3.6951,0.076993,-0.4867
3.6952,0.09253,-0.48365
3.6992,0.10141,-0.48234
3.7091,0.10974,-0.48197
3.6711,0.12867,-0.48805
3.6761,0.1451,-0.48413
3.6504,0.21363,-0.48995
3.6839,0.31172,-0.4836
3.7087,0.35376,-0.48183
3.7078,0.37233,-0.48925
3.7373,0.38376,-0.48779
3.759,0.39443,-0.4849
3.7945,0.40654,-0.48391
3.7816,0.42312,-0.48975
3.822,0.44245,-0.48383
3.8149,0.46056,-0.48949
3.8444,0.47187,-0.48719
3.8808,0.4851,-0.48475
3.8756,0.50555,-0.48851
3.2108,0.9211,-0.48226
3.2032,0.93252,-0.4888
3.2449,0.95129,-0.48485
3.2999,0.97502,-0.481
3.2864,0.98526,-0.48641
3.3366,1.0072,-0.48244
3.3239,1.0179,-0.48794
-0.18325,1.0489,-0.48613
-0.1769,1.0417,-0.48212
3.3863,1.0454,-0.4829
-0.18903,1.0518,-0.48768
-0.155,1.0885,-0.48938
-0.11329,1.1207,-0.48954
3.6021,1.4876,-0.48371
1.5536,3.4989,-0.48389
1.5082,3.5218,-0.48706
1.5446,3.5201,-0.48724
3.6892,-1.1028,-0.47679
3.6808,-0.99711,-0.4788
3.702,-0.98717,-0.47348
3.8759,-0.6497,-0.47475
3.3662,-0.58706,-0.47001
3.3399,-0.57441,-0.47395
3.3146,-0.56228,-0.47747
3.3327,-0.54598,-0.47756
3.3035,-0.53446,-0.479
3.3254,-0.52727,-0.47158
3.3186,-0.51931,-0.47668
3.3267,-0.5029,-0.47313
3.3199,-0.49287,-0.4797
3.3105,-0.47294,-0.47363
3.3085,-0.46466,-0.47972
3.3235,-0.44866,-0.4769
3.3069,-0.43888,-0.47984
3.3246,-0.4318,-0.47079
3.3197,-0.42324,-0.47579
3.2973,-0.41326,-0.47711
3.3013,-0.39003,-0.47563
3.3159,-0.3993,-0.47302
3.2954,-0.38171,-0.47962
3.3189,-0.37585,-0.47104
3.3151,-0.36643,-0.47604
3.3043,-0.35836,-0.47845
3.2857,-0.34916,-0.47957
3.3278,-0.34543,-0.47387
3.3043,-0.33627,-0.47384
3.2906,-0.327,-0.47593
3.3346,-0.32352,-0.47029
3.3238,-0.31359,-0.47328
3.2944,-0.30208,-0.4729
3.2984,-0.29406,-0.47772
3.2963,-0.26059,-0.47605
3.308,-0.26944,-0.47458
3.2924,-0.25229,-0.47874
3.2835,-0.24504,-0.4799
3.3118,-0.24114,-0.47088
3.2971,-0.23261,-0.47133
3.302,-0.22529,-0.47501
3.2892,-0.21689,-0.47555
3.2902,-0.21102,-0.47775
3.6935,0.29635,-0.47525
3.7221,0.30587,-0.47533
3.7194,0.32942,-0.47999
3.7392,0.3388,-0.47805
3.7816,0.35926,-0.47318
3.761,0.37583,-0.47785
