2.41909,-1.93094,0.006175
2.57833,-1.93609,0.00644
2.61997,-1.93785,0.004463
2.71272,-1.93935,0.008816
1.7728,-1.92692,0.000153
2.18295,-1.92544,0.003848
2.2792,-1.92811,0.003962
2.51625,-1.92469,0.006793
2.82002,-1.92633,0.009385
2.87029,-1.92898,0.005279
2.96358,-1.92217,0.009959
1.81316,-1.91978,0.008475
1.82253,-1.91163,0.00311
1.86871,-1.91019,0.004802
2.1345,-1.91428,0.002779
2.22491,-1.91507,0.003588
2.28039,-1.91173,0.002514
2.38371,-1.91509,0.000363
2.46367,-1.91672,0.00735
2.56912,-1.91188,0.009218
2.61208,-1.91466,0.006158
2.70734,-1.91819,0.008363
1.68538,-1.90947,0.001514
1.72541,-1.90479,0.006937
1.77277,-1.90866,0.002868
1.87677,-1.90053,0.000345
2.03941,-1.90618,0.00408
2.18441,-1.90925,0.002792
2.32758,-1.90096,0.005201
2.41351,-1.90903,0.008057
2.50729,-1.90057,0.009934
2.81262,-1.90408,0.009183
1.77738,-1.89556,0.001642
2.13619,-1.89819,0.001864
2.2256,-1.89818,0.002806
1.73653,-1.88089,0.003211
1.82784,-1.88128,0.003376
1.87736,-1.88339,0.001863
1.98683,-1.88776,0.007149
2.0407,-1.88977,0.004001
2.13575,-1.88047,0.002437
2.17849,-1.8867,0.006804
2.27402,-1.88899,0.006049
2.33265,-1.88781,0.000952
2.36842,-1.88551,0.008695
2.50615,-1.88261,0.008441
1.38634,-1.87015,0.000738
1.99518,-1.87821,0.002054
2.07707,-1.87685,0.007751
2.17988,-1.87061,0.005805
2.40762,-1.87015,0.008616
2.64705,-1.87285,0.009508
2.94741,-1.8776,0.008102
1.64761,-1.862,0.001696
1.69699,-1.86779,0.00107
1.83103,-1.86677,0.00307
1.88098,-1.86928,0.000943
1.99653,-1.86209,0.002231
2.03798,-1.86982,0.006863
2.22664,-1.86459,0.001474
2.27155,-1.86978,0.007019
2.50708,-1.86625,0.00574
1.39041,-1.85639,0.002039
1.44235,-1.85364,0.002534
1.74159,-1.85052,0.004698
1.77759,-1.85994,0.006771
1.88148,-1.85224,0.002512
1.93789,-1.8576,0.000951
2.04304,-1.85715,0.004012
2.07542,-1.85812,0.009536
2.0875,-1.85171,0.001439
2.18118,-1.85452,0.004862
2.27117,-1.85239,0.00662
2.3182,-1.85902,0.00927
2.36831,-1.85135,0.006217
2.40884,-1.85409,0.006323
2.55764,-1.85226,0.008324
2.73967,-1.85637,0.008043
1.44817,-1.84241,0.001662
1.544,-1.84213,0.003943
1.6513,-1.84807,0.001935
1.69592,-1.84861,0.005263
1.7844,-1.84936,0.003661
1.99708,-1.84527,0.002995
2.13529,-1.84555,0.003292
2.21957,-1.84154,0.005928
3.03864,-1.84806,0.009917
1.29728,-1.83444,0.000238
1.39038,-1.83727,0.007718
1.40085,-1.83221,0.002042
1.65551,-1.83474,0.001696
1.70046,-1.83579,0.004462
1.79052,-1.83817,0.001118
1.8843,-1.83763,0.002203
2.17427,-1.83156,0.009552
2.22745,-1.8311,0.000313
2.27271,-1.83661,0.004965
2.36459,-1.83145,0.007301
2.45031,-1.83817,0.008097
2.72993,-1.83299,0.009707
2.83854,-1.83979,0.004523
1.5016,-1.82338,0.000441
1.55617,-1.82021,0.000859
1.88588,-1.8218,0.002881
1.99826,-1.82915,0.003281
2.07986,-1.82772,0.00752
2.13265,-1.82622,0.005407
2.31754,-1.82455,0.00776
1.29914,-1.81753,0.004623
1.40474,-1.81846,0.003449
1.65271,-1.81383,0.007766
1.69801,-1.81549,0.009809
1.35597,-1.80672,0.001386
1.40646,-1.80206,0.007123
1.46075,-1.80257,0.004045
1.49813,-1.80083,0.008673
1.65787,-1.80192,0.006625
1.46641,-1.79135,0.003287
1.56434,-1.79374,0.001605
1.31979,-1.78878,0.000165
1.42681,-1.77273,0.001875
1.47093,-1.77881,0.00368
1.3184,-1.76802,0.008078
1.36908,-1.76805,0.004704
1.47594,-1.76687,0.003553
1.51729,-1.7698,0.003616
1.28805,-1.75706,0.001148
1.33354,-1.75121,0.003369
1.37641,-1.75905,0.002521
1.42513,-1.75249,0.009018
1.47882,-1.75231,0.005588
1.52156,-1.75706,0.003995
1.43328,-1.7447,0.005756
1.5264,-1.74503,0.003817
1.28665,-1.73649,0.009383
1.30036,-1.7366,2e-05
1.48259,-1.73916,0.006655
1.25486,-1.72429,0.000196
1.34366,-1.72772,0.004328
1.48956,-1.72975,0.004479
1.21657,-1.71824,0.000286
1.39642,-1.71208,0.003752
1.4534,-1.71577,0.000532
1.49547,-1.71904,0.00338
1.30658,-1.70813,0.005825
1.404,-1.70378,0.00124
1.17893,-1.69526,0.001113
1.3098,-1.69424,0.008531
1.36163,-1.69673,0.002458
1.40998,-1.69345,0.000428
1.23018,-1.68143,0.00539
1.31847,-1.68756,0.004973
1.32816,-1.68209,0.000271
1.36514,-1.68336,0.004544
1.45765,-1.68591,0.006469
1.23936,-1.67576,0.001354
1.27488,-1.67797,0.00389
1.46404,-1.676,0.005019
1.32769,-1.66375,0.007088
1.41921,-1.66956,0.001681
1.15538,-1.65358,0.00236
1.20138,-1.65276,0.00327
1.33214,-1.65179,0.008263
1.37293,-1.65794,0.007736
1.38095,-1.65034,0.004814
1.11295,-1.6411,0.000456
1.16275,-1.64557,0.000771
1.25718,-1.64544,0.001037
1.21543,-1.63572,0.000676
1.29945,-1.63864,0.001791
1.34826,-1.6369,0.002523
1.39525,-1.63313,0.000816
1.42234,-1.63887,0.009302
1.43289,-1.63412,0.003576
1.30097,-1.62313,0.00659
1.35003,-1.6218,0.006642
1.07873,-1.61929,0.001658
1.17708,-1.61106,0.005883
1.27207,-1.61177,0.003997
1.31,-1.61705,0.002685
1.39469,-1.6154,0.007146
1.12915,-1.60901,0.003918
1.18615,-1.60557,0.002048
1.36583,-1.60681,0.001162
1.1332,-1.59662,0.006788
1.23622,-1.59249,0.00429
1.27506,-1.59828,0.007251
1.28603,-1.59493,0.001088
1.36847,-1.59292,0.004251
1.24074,-1.58103,0.005918
1.31571,-1.58977,0.00899
1.37211,-1.58046,0.006184
1.02266,-1.57195,0.001826
1.10991,-1.57296,0.002308
1.20176,-1.5736,0.005175
1.32997,-1.57315,0.005463
1.37939,-1.57225,0.004116
1.06298,-1.56885,0.003497
1.25471,-1.56439,0.00321
1.11973,-1.55102,0.005995
1.21776,-1.5599,0.000172
1.26166,-1.55607,0.001892
1.29663,-1.5569,0.008692
1.33514,-1.55433,0.0089945
1.08419,-1.54556,0.000597
1.12818,-1.54522,0.003013
1.17506,-1.54787,0.000343
1.21935,-1.54477,0.005594
1.268,-1.54714,0.001258
1.30446,-1.5497,0.006195
1.34601,-1.54222,0.006081
1.04924,-1.53839,0.000916
1.17729,-1.53355,0.005299
1.05168,-1.52384,0.006696
1.0851,-1.52889,0.008181
0.114957,-1.46732,0.000949
0.075409,-1.41599,2.7e-05
-0.044372,-1.28821,0.002138
-0.036269,-1.28252,0.003535
-0.028372,-1.27951,0.001852
-0.055328,-1.21533,0.008525
-0.047581,-1.21302,0.006233
-0.024197,-1.20477,0.001174
0.006956,-1.18816,0.001337
-0.034479,-1.17031,0.002465
-0.018975,-1.16322,0.00147
-0.066007,-1.15205,0.005209
-0.058325,-1.14985,0.003087
-0.004453,-1.1235,0.002397
-0.051148,-1.11122,0.006239
-0.043655,-1.11076,0.001855
-0.028264,-1.10213,0.003582
0.000403,-1.05515,0.002384
0.212472,-1.04457,0.001386
-0.052374,-1.02144,0.00175
-0.044671,-1.01539,0.005734
-0.037395,-1.01555,0.000662
-0.029726,-1.00833,0.006349
-0.014859,-1.0018,0.006299
-0.037787,-0.984779,0.000759
-0.030255,-0.978832,0.004865
-0.022968,-0.97839,0.000747
-0.074713,-0.965284,0.00809
-0.067713,-0.966611,0.00129
-0.038007,-0.954271,0.001351
-0.058682,-0.935765,0.005056
-0.029459,-0.92626,0.001258
-0.021948,-0.919997,0.00659
-0.014669,-0.916914,0.0068
0.181289,-0.919219,0.000296
-0.035629,-0.901145,0.005041
-0.028404,-0.900222,0.001929
0.158317,-0.900719,0.001091
-0.013778,-0.892608,0.005069
-0.06414,-0.88483,0.004999
-0.056835,-0.881947,0.005196
-0.049672,-0.880578,0.002847
-0.027761,-0.870766,0.005484
-0.041934,-0.851048,0.000597
0.206528,-0.853497,0.000766
-0.034446,-0.844204,0.007882
-0.084843,-0.834089,0.005215
-0.063135,-0.826404,0.005242
-0.055892,-0.82317,0.006449
-0.048697,-0.820891,0.006006
-0.034433,-0.816793,0.004245
-0.023735,-0.813802,0.0028035
-0.090267,-0.809866,0.007281
-0.033176,-0.794126,0.000105
-0.085515,-0.785561,0.0014545
0.12455,-0.762226,0.001406
-0.087135,-0.756207,0.00848
-0.079935,-0.753688,0.009003
-0.051694,-0.745819,0.006664
-0.044727,-0.744607,0.004578
-0.037646,-0.742475,0.004341
-0.091663,-0.738481,0.005697
-0.070303,-0.731545,0.006353
-0.063185,-0.729065,0.006934
-0.056161,-0.727015,0.006616
-0.049034,-0.724513,0.007313
-0.035023,-0.720798,0.005981
0.177322,-0.721454,0.001419
-0.097027,-0.71704,0.002427
-0.089936,-0.7151,0.002065
-0.075755,-0.711178,0.001464
-0.065012,-0.70669,0.0041605
-0.040376,-0.699023,0.004768
-0.033335,-0.696988,0.004683
0.184721,-0.696678,0.000503
-0.066618,-0.684376,0.001722
-0.0561505,-0.681883,0.000516
0.083467,-0.685687,0.002678
0.143706,-0.686337,0.000921
0.205426,-0.689725,0.000761
-0.045548,-0.678108,0.002109
0.118137,-0.676171,8.1e-05
-0.092803,-0.663081,0.006149
-0.079009,-0.660637,0.002929
0.077925,-0.665821,0.000182
0.219424,-0.662048,0.001143
0.024113,-0.656689,0.005166
0.098367,-0.657464,0.004977
0.19385,-0.652486,0.000566
-0.050647,-0.649915,0.009701
-0.043737,-0.648022,0.009588
-0.0944175,-0.639343,0.003193
-0.045631,-0.626745,0.0023775
-0.035298,-0.62476,0.000546
0.059666,-0.622334,0.002903
-0.081704,-0.613063,0.000543
0.17537,-0.614771,0.001394
0.221454,-0.61994,0.006577
-0.053818,-0.605692,0.001269
0.033742,-0.606472,0.000458
0.195911,-0.608929,0.001185
-0.105951,-0.594431,0.008077
-0.092389,-0.592645,0.004059
-0.078804,-0.590807,0.000146
0.074826,-0.594556,0.00296
0.0851455,-0.592455,0.0014395
-0.050969,-0.583293,0.002002
-0.043955,-0.580466,0.004842
0.109129,-0.586584,0.000292
0.189465,-0.58624,0.003393
0.203359,-0.583173,0.001673
-0.102561,-0.576138,0.005
-0.074974,-0.570061,0.003773
0.083501,-0.570613,0.00154
0.209426,-0.579066,0.007214
-0.054395,-0.565851,0.001994
0.004026,-0.569638,0.002439
0.01085,-0.568206,0.001788
0.024571,-0.565308,0.00068
0.031367,-0.563486,0.001015
0.117469,-0.561397,0.002976
0.184063,-0.566507,0.000681
-0.086189,-0.550726,0.000614
0.058694,-0.556804,0.001051
0.072173,-0.551982,0.004941
0.123993,-0.557959,0.007485
0.144862,-0.555406,0.000545
0.214128,-0.55644,0.005794
-0.092371,-0.54876,0.009997
-0.078977,-0.547411,0.005254
0.014217,-0.54667,0.009865
0.034565,-0.543837,0.004501
-0.096548,-0.530006,0.00365
-0.037986,-0.539593,0.001218
0.089066,-0.532385,0.000705
-0.076056,-0.526188,0.00182
0.193614,-0.520392,0.009791
-0.007728,-0.511619,0.001104
0.135938,-0.518519,0.008022
0.143298,-0.519599,0.000477
0.156652,-0.515389,0.003372
-0.100258,-0.505083,0.007064
-0.086538,-0.502239,0.007178
-0.0763965,-0.500569,0.0058535
0.214074,-0.50147,0.0041825
0.138648,-0.499376,0.001862
0.145209,-0.497194,0.003693
0.223637,-0.497468,0.008873
-0.103685,-0.487563,0.002665
-0.09008,-0.48545,0.000926
-0.083195,-0.483753,0.001934
-0.076108,-0.481114,0.005825
0.127755,-0.482345,0.000853
0.19972,-0.486146,0.000144
0.062411,-0.472212,0.005197
0.154347,-0.474884,0.005772
0.219179,-0.47938,0.006642
-0.0962285,-0.464904,0.005482
0.102745,-0.463905,0.005144
0.194727,-0.466063,0.005918
0.201561,-0.464811,0.005265
0.222305,-0.461591,0.001567
0.052388,-0.457173,0.001438
0.079326,-0.452112,0.000568
-0.122955,-0.446803,0.008722
-0.095794,-0.442157,0.008073
-0.089292,-0.442061,0.004388
0.042291,-0.440335,0.000489
0.092673,-0.448347,0.00421
0.210968,-0.443015,0.000951
-0.075664,-0.439244,0.005664
-0.04887,-0.436094,6.5e-05
-0.028518,-0.431856,0.002102
0.065669,-0.433981,0.0068855
0.075889,-0.433443,0.002365
0.146585,-0.438547,0.001477
0.153147,-0.436599,0.003557
0.173663,-0.43357,0.000389
-0.123239,-0.42334,0.004662
-0.106491,-0.421261,0.001951
-0.001581,-0.427608,0.000156
0.011934,-0.424315,0.003205
0.025385,-0.421829,0.003515
0.116075,-0.425372,0.004007
0.136332,-0.422062,0.002353
-0.099171,-0.418418,0.007869
-0.086153,-0.417986,0.001461
-0.079353,-0.416786,0.001688
-0.059034,-0.413414,0.001574
0.0724,-0.41442,4.4e-05
-0.109107,-0.402069,0.001212
-0.018598,-0.406745,0.001126
0.125966,-0.404295,0.001934
0.13283,-0.403596,0.000178
0.216233,-0.405047,0.008746
0.224044,-0.406056,0.000641
-0.095052,-0.398238,0.007285
-0.088801,-0.398954,0.000749
0.152267,-0.397724,0.00842
0.175831,-0.393927,0.0070095
0.199958,-0.391322,0.001089
-0.132181,-0.383036,0.001698
-0.115345,-0.380826,0.000447
0.10542,-0.385772,0.0016455
0.128857,-0.381869,0.001539
0.20643,-0.389489,0.003479
0.213358,-0.388673,0.00204
0.22027,-0.387847,0.000613
-0.091263,-0.375987,0.005415
-0.084504,-0.374907,0.005673
0.085766,-0.370907,0.001682
0.135251,-0.379682,0.00556
0.161816,-0.374684,0.007512
0.182304,-0.372287,0.00377
0.092468,-0.369832,0.001735
0.105683,-0.36694,0.004761
0.132672,-0.363761,0.000488
0.145993,-0.361514,0.000895
0.209423,-0.368311,0.001703
0.235616,-0.36249,0.00682
-0.106533,-0.35974,0.008943
-0.093282,-0.358453,0.006497
-0.080248,-0.358087,0.000323
0.155612,-0.358599,0.006184
0.175689,-0.355516,0.00576
0.186241,-0.355074,0.001071
0.213276,-0.351014,0.000159
0.033621,-0.340867,0.004846
0.115758,-0.344836,0.006314
0.205421,-0.349864,0.009267
0.233255,-0.347375,0.001861
0.240158,-0.346607,0.000563
0.060212,-0.33698,0.005346
0.155935,-0.339431,0.003883
0.185991,-0.334859,0.0042035
0.209906,-0.33217,0.000686
0.216423,-0.330805,0.002202
0.014508,-0.325225,0.0014975
0.024473,-0.322428,0.00795
0.037759,-0.320746,0.007665
0.044423,-0.320546,0.004596
0.051156,-0.320545,0.000632
0.126859,-0.328033,0.003263
0.133085,-0.325703,0.009349
0.159769,-0.3221,0.008692
0.166985,-0.322599,0.002209
0.173654,-0.321555,0.002652
0.235834,-0.326476,0.007942
0.243006,-0.326195,0.004762
0.084446,-0.316135,0.000592
0.09074,-0.313518,0.008451
0.206827,-0.316264,0.005109
0.213093,-0.314539,0.008621
0.220359,-0.314519,0.004406
0.244258,-0.311723,0.0019325
-0.01757,-0.308823,0.007905
0.008888,-0.306835,0.001837
0.137626,-0.308521,0.003059
0.150978,-0.30683,0.002727
0.198027,-0.301175,8e-06
-0.033196,-0.291484,0.00397
-0.026599,-0.291188,0.001678
0.055261,-0.299413,0.009667
0.0652,-0.298288,0.009169
0.075301,-0.298173,0.003828
0.081844,-0.296928,0.005818
0.095368,-0.296458,0.000153
0.101918,-0.29519,0.002259
0.14183,-0.290134,0.002826
0.203974,-0.298941,0.006413
0.214222,-0.29792,0.0049085
0.245058,-0.294769,0.000698
-0.016549,-0.289557,0.0040775
-0.006584,-0.288305,0.004594
0.039825,-0.283034,0.004283
0.066467,-0.280772,0.000276
0.148298,-0.288843,0.005111
0.168643,-0.287105,0.001486
0.18474,-0.283911,0.0070665
0.195159,-0.283377,0.003505
0.204897,-0.281673,0.0058145
-0.02864,-0.271368,0.002107
0.086093,-0.277103,0.007347
0.096238,-0.276875,0.002643
0.116021,-0.27409,0.005236
0.126009,-0.273056,0.004645
0.132442,-0.271674,0.007927
0.152794,-0.270492,0.002116
0.235242,-0.278202,0.004438
0.24472,-0.276162,0.008567
-0.005283,-0.268373,0.0050065
0.017834,-0.266789,0.000305
0.024503,-0.264832,0.007066
0.037687,-0.263109,0.008802
0.044401,-0.263508,0.00291
0.0641,-0.260506,0.007751
0.165588,-0.267866,0.00788
0.176095,-0.267689,0.0027425
0.186119,-0.266572,0.002551
0.19221,-0.264787,0.008013
0.226172,-0.261799,0.003394
0.233268,-0.261428,0.001239
-0.030251,-0.254321,0.001331
-0.023528,-0.253202,0.00393
-0.003753,-0.251931,0.000104
0.08404,-0.258718,0.006114
0.090772,-0.258705,0.002271
0.110683,-0.256671,0.001867
0.157393,-0.252013,0.000386
0.163846,-0.25088,0.002808
0.238853,-0.25927,0.008874
0.24564,-0.25853,0.008633
-0.144925,-0.245955,0.004641
-0.117992,-0.24324,0.006395
-0.105019,-0.242785,0.002091
0.026132,-0.248366,0.003802
0.062554,-0.244908,0.003186
0.075713,-0.243246,0.005306
0.108869,-0.240361,0.003203
0.183905,-0.248845,0.002423
0.1904,-0.24786,0.003964
0.206692,-0.245575,0.0069325
0.217197,-0.2451,0.003617
0.243699,-0.241901,0.005659
-0.065013,-0.23928,0.001657
-0.058366,-0.238596,0.002125
0.007946,-0.232681,0.001939
0.014576,-0.23195,0.002784
0.027786,-0.230476,0.004508
0.122166,-0.239132,0.002799
0.13548,-0.23789,0.002505
0.155442,-0.236055,0.001705
0.162258,-0.235661,0.000233
0.188738,-0.232689,0.002419
0.205376,-0.230952,0.0030245
-0.133073,-0.226421,0.002338
-0.093191,-0.223483,0.000176
-0.08591,-0.22163,0.008464
-0.076153,-0.221338,0.005249
-0.066019,-0.220099,0.007966
-0.059787,-0.220563,0.001558
0.054205,-0.227962,0.005406
0.0642045,-0.227698,0.001534
0.074179,-0.226939,0.000715
0.080794,-0.226323,0.000841
0.094085,-0.225238,0.000202
0.100615,-0.224451,0.001358
0.147147,-0.220386,0.000748
0.215292,-0.229799,0.004066
0.225657,-0.22927,0.0012135
0.248576,-0.226198,0.006002
-0.036442,-0.218269,0.0041175
-0.016523,-0.216035,0.008093
0.0032745,-0.214597,0.006991
0.013098,-0.214807,0.000327
0.032928,-0.212628,0.004001
0.046149,-0.211864,0.001955
0.056026,-0.210745,0.004
0.160215,-0.218738,0.003664
0.193607,-0.215932,0.002496
0.2066,-0.214226,0.005828
0.21376,-0.214268,0.001567
0.226569,-0.2124,0.005999
-0.120321,-0.20409,0.009091
-0.104463,-0.204066,0.0009565
-0.081056,-0.202161,0.002386
-0.074296,-0.201465,0.003872
-0.06753,-0.200629,0.006327
0.075954,-0.209677,0.0003165
0.085617,-0.207807,0.007492
0.098905,-0.207103,0.004912
0.105373,-0.206092,0.00818
0.118966,-0.205945,0.001865
0.125267,-0.204784,0.006099
0.135271,-0.204102,0.005201
0.144962,-0.202848,0.008287
0.155085,-0.202368,0.0060315
0.165332,-0.202018,0.002838
0.178201,-0.200348,0.006868
0.185506,-0.200702,0.000562
-0.047765,-0.199515,0.004097
-0.021318,-0.197497,0.004744
-0.014704,-0.196918,0.005481
0.005167,-0.194864,0.009861
0.031464,-0.193562,0.00551
0.044652,-0.192877,0.003488
0.05454,-0.192156,0.003524
0.074365,-0.190743,0.0033795
0.205097,-0.198509,0.004524
0.215433,-0.19803,0.00218
0.225125,-0.196841,0.00478
0.235256,-0.19613,0.0040365
0.245326,-0.195268,0.004307
-0.148173,-0.185738,0.008659
0.117337,-0.187749,0.002414
0.13388,-0.186485,0.0028545
0.157184,-0.184915,0.001987
0.170146,-0.183546,0.004983
0.183569,-0.182683,0.004257
0.210115,-0.180653,0.004957
-0.042184,-0.178894,0.009311
0.003799,-0.176428,0.005589
0.016978,-0.175364,0.007344
0.030135,-0.174792,0.005225
0.0466655,-0.173993,0.0033085
0.056506,-0.173226,0.004351
0.066446,-0.172697,0.003564
0.076179,-0.171677,0.006688
0.082803,-0.171228,0.006933
0.106034,-0.170267,0.002778
0.223521,-0.179744,0.004485
0.233326,-0.178793,0.0062195
0.243306,-0.177961,0.006981
-0.142251,-0.168406,0.009085
-0.136563,-0.169091,0.000379
-0.123054,-0.16815,0.001908
-0.056496,-0.164108,0.004403
-0.049966,-0.163894,0.003014
-0.03354,-0.163239,0.000686
-0.003711,-0.160935,0.00604
0.155426,-0.166732,0.005796
0.205404,-0.163704,0.0045175
0.235135,-0.161487,0.007137
0.245638,-0.161204,0.004011
0.016029,-0.159973,0.004686
0.0259175,-0.159424,0.004603
0.042425,-0.158963,0.000638
0.068757,-0.157201,0.002958
0.075376,-0.156925,0.002114
0.085238,-0.156278,0.002901
0.095076,-0.155621,0.003706
0.115098,-0.154852,0.000695
0.134772,-0.153488,0.002791
0.144486,-0.152572,0.0059925
0.164484,-0.151609,0.0045795
0.184287,-0.150397,0.0053695
-0.09738,-0.147754,0.000552
-0.0741505,-0.146622,0.0007215
-0.050797,-0.14514,0.004211
-0.044305,-0.145066,0.001876
-0.004677,-0.143014,0.003329
0.0052085,-0.142558,0.003129
0.021672,-0.141476,0.005886
0.041401,-0.140536,0.005881
0.054639,-0.1404,0.001034
0.208172,-0.149624,0.000397
0.214379,-0.148835,0.004096
0.224723,-0.148519,0.0018725
0.234534,-0.147761,0.003668
0.24754,-0.146708,0.006399
0.080912,-0.138761,0.004617
0.093926,-0.137783,0.008075
0.100445,-0.137436,0.008276
0.113786,-0.137148,0.004938
0.120429,-0.136887,0.004322
0.133749,-0.136372,0.003189
0.143611,-0.135828,0.0038565
0.166549,-0.134432,0.006724
0.17316,-0.134158,0.006252
0.186309,-0.133394,0.007548
0.193077,-0.133197,0.006237
0.213387,-0.13251,0.003517
0.223457,-0.132054,0.0032495
0.233442,-0.131497,0.004014
0.246193,-0.130484,0.007777
0.252841,-0.13007,0.008739
-0.150667,-0.129362,0.007249
-0.091118,-0.127204,0.005292
-0.084611,-0.127087,0.003799
-0.0745985,-0.126532,0.0055205
-0.0547275,-0.125639,0.006759
-0.035027,-0.124956,0.005744
-0.0252,-0.124698,0.00437
-0.012092,-0.124313,0.0029
0.047121,-0.121853,0.00434
0.0636155,-0.121318,0.003126
-0.151415,-0.111054,0.004986
-0.13184,-0.1107,0.001689
-0.111846,-0.110074,0.001751
0.096365,-0.119706,0.006644
0.106209,-0.119278,0.007084
0.112701,-0.118901,0.008399
0.126167,-0.118756,0.004247
0.136154,-0.118486,0.0028835
0.145938,-0.117945,0.004582
0.159342,-0.117594,0.002662
0.185518,-0.11625,0.006076
0.215913,-0.115387,0.0024755
0.226079,-0.115055,0.001778
0.235588,-0.114338,0.0054935
0.245771,-0.114037,0.004358
0.252071,-0.113524,0.007268
-0.065399,-0.108511,0.003094
-0.058758,-0.108256,0.003699
-0.02587,-0.107272,0.003051
-0.019129,-0.10676,0.006872
-0.006082,-0.10662,0.0035
0.020214,-0.105909,0.002091
0.033376,-0.10518,0.006062
0.046493,-0.104922,0.004101
0.052986,-0.104313,0.009191
0.066163,-0.104119,0.006458
0.072758,-0.103978,0.005635
0.086086,-0.103926,0.001093
0.098862,-0.102844,0.009593
0.105832,-0.103239,0.001936
0.119028,-0.102848,0.001624
0.125334,-0.1023,0.005992
0.171746,-0.100955,0.004682
0.185041,-0.100594,0.003935
0.198644,-0.100373,0.001393
-0.112407,-0.091933,0.000581
-0.095632,-0.091401,0.0026465
-0.085787,-0.091259,0.001386
-0.059315,-0.090559,0.002537
-0.032994,-0.090034,0.001238
0.204543,-0.099653,0.008114
0.211102,-0.099385,0.008898
0.244772,-0.09854,0.006244
0.251921,-0.098557,0.003209
-0.016419,-0.089515,0.0031995
0.01318,-0.088695,0.005093
0.026296,-0.088462,0.003987
0.039449,-0.088084,0.005047
0.04599,-0.088065,0.003045
0.059122,-0.087538,0.006311
0.06581,-0.087784,0.000432
0.072353,-0.087551,0.001595
0.085445,-0.087078,0.004036
0.125222,-0.086423,5.4e-05
0.157836,-0.085289,0.005447
0.164907,-0.085425,0.001128
0.174357,-0.084869,0.0059855
0.184176,-0.084573,0.006934
0.234593,-0.083638,0.003451
-0.151522,-0.073789,0.00984
-0.135972,-0.074084,0.000525
-0.08604,-0.073207,0.002442
-0.079405,-0.073076,0.002933
-0.0563205,-0.072746,0.0024925
0.0160915,-0.0714505,0.00567
0.045622,-0.071079,0.004209
0.065391,-0.070868,0.002609
0.085038,-0.070417,0.005235
0.0947,-0.070045,0.0090955
0.104723,-0.070122,0.005033
0.114882,-0.0702205,0.000633
0.124565,-0.069866,0.004236
0.13761,-0.069557,0.006104
0.157511,-0.069333,0.004656
0.170716,-0.069119,0.00483
0.184278,-0.069063,0.002198
0.197065,-0.068615,0.00656
0.21066,-0.068545,0.004149
0.223904,-0.068304,0.004782
0.230073,-0.067989,0.008642
-0.15272,-0.054121,0.001147
-0.105892,-0.053664,0.004326
-0.09932,-0.053645,0.003766
-0.0764015,-0.0536155,0.0010105
-0.053323,-0.053479,0.00058
-0.047381,-0.050062,0.004884
-0.026721,-0.052995,0.007378
0.006058,-0.052812,0.006582
0.01262,-0.052772,0.006516
0.035557,-0.052598,0.006976
0.055189,-0.052456,0.007181
0.065033,-0.052402,0.006899
0.078331,-0.052565,0.001286
0.091385,-0.052366,0.003761
0.15749,-0.052002,0.002032
0.193512,-0.0515795,0.006042
0.203648,-0.051573,0.004703
0.250533,-0.051297,0.003822
-0.02448,-0.049917,0.0024435
-0.014617,-0.049833,0.002635
0.024796,-0.049521,0.002086
0.034608,-0.0493815,0.0056045
0.044514,-0.049358,0.002231
0.051112,-0.049337,0.000311
0.07071,-0.049119,0.003709
0.0937165,-0.0489245,0.0041195
0.110357,-0.048851,0.000437
0.1266,-0.0486595,0.00392
0.136567,-0.048592,0.003125
0.156284,-0.048422,0.003635
0.166188,-0.048335,0.0040425
0.175907,-0.048213,0.006528
0.185691,-0.0481165,0.0075055
0.195507,-0.048018,0.008583
0.215871,-0.047914,0.004986
0.22609,-0.0478595,0.0032835
0.256602,-0.047657,0.000593
-0.160281,-0.034206,0.00018
-0.073687,-0.034092,0.00502
-0.06714,-0.034089,0.0046
-0.044055,-0.0340615,0.005387
-0.021139,-0.034047,0.004463
-0.014725,-0.03407,0.000234
0.01165,-0.034027,0.002811
0.024769,-0.033995,0.005733
0.0313,-0.033996,0.004714
0.050918,-0.033964,0.006883
0.070667,-0.033969,0.003351
0.083919,-0.033973,0.000815
0.096839,-0.033932,0.005339
0.103384,-0.033923,0.005651
0.126346,-0.033896,0.0065245
0.14627,-0.03389,0.0045175
0.156438,-0.033902,0.001328
0.165771,-0.033851,0.007682
0.195704,-0.033832,0.006254
0.229347,-0.03382,0.003396
0.249294,-0.033798,0.004116
-0.140097,-0.016649,0.000652
-0.080182,-0.017066,0.005212
-0.014506,-0.017497,0.004047
0.00515,-0.017626,0.003633
0.018293,-0.017729,0.007517
0.037944,-0.017847,0.004544
0.0543805,-0.017943,0.0012525
0.077228,-0.018113,0.005321
0.103654,-0.018275,0.002501
0.11321,-0.018361,0.008033
0.123399,-0.018407,0.002635
0.136197,-0.018513,0.007492
0.143076,-0.018544,0.004035
0.155932,-0.018645,0.008119
0.162871,-0.018676,0.003646
0.176385,-0.018754,0.000929
0.189416,-0.01885,0.003305
0.229779,-0.019105,0.000158
0.235826,-0.019163,0.005088
0.24242,-0.019211,0.005978
0.038152,-0.000196,0.006509
0.064459,-0.000516,0.001948
0.071025,-0.000589,5.3e-05
0.096935,-0.001118,0.009067
0.103937,-0.001086,0.000401
0.123421,-0.001456,0.005601
0.136915,-0.001579,0.00046
0.156117,-0.001985,0.008052
0.176136,-0.002248,0.005924
0.189527,-0.002425,0.004271
0.195607,-0.002591,0.008937
0.215716,-0.002865,0.007357
0.225928,-0.00299,0.0056635
0.246263,-0.0032595,0.003438
-0.10656,0.002032,0.00227
-0.060167,0.001281,0.005905
-0.040622,0.001035,0.002887
-0.034002,0.000926,0.003639
-0.004451,0.000467,0.0047445
0.133676,0.019653,0.0064445
0.163579,0.018975,0.003896
0.170384,0.018872,0.00147
0.186437,0.0183075,0.0066285
0.202573,0.017793,0.009898
0.210354,0.01788,0.00081
0.236784,0.017134,0.003247
0.242569,0.016804,0.009099
-0.139215,0.026734,0.001854
-0.106047,0.025867,0.002522
-0.079421,0.025102,0.005432
-0.066181,0.024732,0.006573
-0.040103,0.024172,0.003153
-0.033643,0.024077,0.000845
-0.023644,0.0237105,0.0044895
-0.01388,0.023566,0.001219
-0.007256,0.02331,0.004044
0.02555,0.022427,0.005696
0.058244,0.021584,0.005962
0.064919,0.021534,0.00216
0.074811,0.0213205,0.000937
0.091027,0.020751,0.006043
0.124104,0.020039,0.00177
0.174203,0.0396235,0.003823
0.190627,0.03898,0.005005
0.213552,0.038036,0.007698
0.224146,0.037871,0.002996
0.237627,0.03744,0.001774
0.250793,0.036884,0.003702
-0.105506,0.049837,0.00019
-0.058985,0.047907,0.005717
-0.04604,0.047659,0.001083
-0.03907,0.047013,0.009775
-0.026372,0.046988,0.000187
-0.006501,0.045982,0.006596
0.006551,0.045708,0.002377
0.016423,0.0452915,0.0037945
0.026253,0.0451,0.000235
0.0361085,0.0446775,0.001786
0.045914,0.044207,0.004349
0.091642,0.042372,0.008598
0.11496,0.041845,0.0017365
0.124797,0.041464,0.002324
0.134712,0.041104,0.002551
0.144545,0.040737,0.002714
0.154397,0.040348,0.0035345
-0.132007,0.050759,0.000725
0.138659,0.059224,0.005005
0.145365,0.059011,0.003504
0.154961,0.0583855,0.0067655
0.164715,0.057867,0.008085
0.172043,0.05797,0.000776
0.195256,0.0569305,0.000587
0.214141,0.05557,0.009338
0.224847,0.055422,0.003643
0.234837,0.054955,0.004004
0.244991,0.054536,0.003395
0.255108,0.0541125,0.0028735
-0.084241,0.068988,0.009257
-0.058456,0.068342,0.000557
-0.045223,0.067671,0.001831
-0.035244,0.0671045,0.0039095
-0.012243,0.065971,0.005578
0.013968,0.064585,0.009038
0.023792,0.064267,0.0070105
0.043485,0.063787,5.45e-05
0.0565205,0.062869,0.005742
0.066345,0.062387,0.006462
0.07961,0.062061,0.001852
0.092815,0.061555,0.000338
0.112262,0.060334,0.006316
-0.110789,0.070346,0.006521
-0.104321,0.070145,0.004941
0.087051,0.079739,0.004014
0.119606,0.077669,0.008555
0.126387,0.07749,0.006025
0.133102,0.07731,0.003419
0.146479,0.076736,0.001419
0.159175,0.075626,0.00747
0.172445,0.074966,0.006646
0.185937,0.074439,0.003955
0.192932,0.074296,0.000665
0.205919,0.073422,0.003093
0.212399,0.072953,0.004926
0.225329,0.072062,0.007516
0.2361,0.0718865,0.001897
0.245648,0.071135,0.005195
-0.090169,0.089111,0.005804
-0.083668,0.088873,0.004325
-0.077272,0.088702,0.001819
-0.063877,0.087766,0.004938
-0.050931,0.087342,0.001164
-0.044014,0.086497,0.007824
-0.024568,0.085872,0.001958
0.008304,0.084092,0.002124
0.014875,0.083674,0.003039
0.0247105,0.0829395,0.005953
0.047726,0.082127,4.2e-05
0.054271,0.081556,0.003175
0.074023,0.080613,0.001616
0.080478,0.080033,0.004812
0.133821,0.089793,0.004183
0.146958,0.08893,0.005164
0.167165,0.088073,0.000847
0.187081,0.086892,0.000766
0.206781,0.085537,0.002913
0.219852,0.084624,0.004429
0.243841,0.0835415,0.0001015
0.25381,0.082877,0.001031
-0.116453,0.090426,0.007153
-0.103598,0.090043,0.002952
-0.030369,0.09987,0.001135
-0.023726,0.09926,0.003833
-0.0138425,0.0986145,0.004517
-0.003999,0.098048,0.004251
0.002547,0.097499,0.00604
0.022221,0.096591,0.002828
0.035336,0.095964,0.000769
0.041834,0.094856,0.009802
0.055012,0.094609,0.002934
0.068107,0.093731,0.004187
0.074706,0.093398,0.003374
0.087936,0.092733,0.001846
0.10747,0.091262,0.005697
0.127265,0.090221,0.003745
0.220602,0.099219,0.007557
0.24461,0.098038,0.00261
0.253961,0.097017,0.007028
0.264484,0.096573,0.004028
0.273915,0.095569,0.008036
-0.116188,0.104925,0.002085
-0.105822,0.103944,0.006648
-0.0862875,0.103031,0.0034725
0.085496,0.108356,0.007355
0.095307,0.107707,0.007175
0.128041,0.105348,0.008915
0.134872,0.105209,0.005373
0.144807,0.104607,0.0045565
0.161223,0.103421,0.005331
0.181372,0.102347,0.002157
0.200594,0.10051,0.008187
0.268479,0.109196,0.007077
0.275951,0.109124,0.002233
-0.075334,0.119517,0.003947
-0.065558,0.119006,0.0022635
-0.055476,0.118023,0.005622
-0.042377,0.117304,0.003942
-0.03598,0.117165,0.000582
-0.022586,0.115678,0.007009
-0.009432,0.114747,0.007614
0.029814,0.112329,0.004934
0.049588,0.111437,6.7e-05
0.056153,0.110992,0.000133
0.122479,0.11981,0.009619
0.135876,0.119133,0.006512
0.155912,0.11799,0.002931
0.16241,0.117355,0.004512
0.185276,0.11539,0.0070885
0.195284,0.114696,0.00665
0.202131,0.114413,0.004321
0.229033,0.112592,0.002553
0.235738,0.112113,0.002401
0.245115,0.110974,0.0066825
0.255828,0.110631,0.002206
-0.121529,0.122535,0.004994
-0.094836,0.120514,0.007525
-0.082012,0.120113,0.002493
0.011188,0.129026,0.000427
0.030901,0.126778,0.008197
0.057142,0.12521,0.004324
0.063588,0.124317,0.008386
0.073467,0.12376,0.0066325
0.089743,0.122294,0.009097
0.096693,0.122559,0.001438
0.109707,0.121328,0.003977
0.116455,0.121097,0.001349
0.173541,0.129787,0.003565
0.183587,0.129096,0.00249
0.20654,0.126967,0.0048875
0.215999,0.125755,0.008991
0.222796,0.125334,0.007798
0.246871,0.123925,0.002931
0.263028,0.122237,0.006278
0.273266,0.121514,0.00532
-0.054705,0.133873,0.000898
-0.0448075,0.133146,0.0008425
-0.034847,0.132203,0.002821
-0.0249295,0.131411,0.0034235
-0.014959,0.130203,0.008024
0.045078,0.13966,0.008466
0.051681,0.13967,0.003495
0.064777,0.138263,0.006713
0.07125,0.137509,0.008802
0.084534,0.13694,0.004186
0.09125,0.136697,0.001459
0.114211,0.134674,0.0029325
0.137108,0.132616,0.004697
0.237602,0.139681,0.008078
0.244926,0.139526,0.004071
0.254902,0.138644,0.003965
0.265191,0.137854,0.002906
0.271591,0.137049,0.004925
-0.073313,0.14991,0.002614
-0.053509,0.148223,0.003234
-0.046742,0.147283,0.00683
-0.027181,0.146128,0.002849
-0.00086,0.144103,0.001981
0.012301,0.142626,0.005643
0.038601,0.140962,0.001488
0.125192,0.149643,0.008549
0.131882,0.149243,0.006942
0.158807,0.147593,0.000886
0.16462,0.146038,0.00931
0.175076,0.145784,0.0037305
0.198292,0.143746,0.003443
0.211902,0.142843,0.000924
0.023638,0.159217,0.004323
0.033519,0.158708,0.001286
0.043363,0.157713,0.00225
0.0564575,0.156411,0.0032715
0.066279,0.155162,0.006452
0.099111,0.152364,0.005331
0.105651,0.151634,0.006641
0.112159,0.151012,0.006873
0.243795,0.158992,0.002838
0.273838,0.15585,0.004085
-0.072013,0.168209,0.000507
-0.058783,0.167027,0.000577
-0.032186,0.164115,0.005027
-0.005915,0.161656,0.005911
0.134168,0.169658,0.004337
0.144262,0.169044,0.001459
0.167172,0.166353,0.004694
0.173285,0.165125,0.00912
0.180239,0.16489,0.005738
0.203819,0.162989,0.0025715
0.213144,0.161326,0.008122
0.227249,0.160785,0.001712
0.233839,0.160027,0.002622
-0.098556,0.170548,0.000669
0.035447,0.179128,0.006614
0.045332,0.17849,0.0041255
0.061848,0.17718,0.001785
0.104462,0.172464,0.005352
0.127519,0.170237,0.004936
0.248557,0.177477,0.009715
0.255881,0.177291,0.005709
0.265395,0.175743,0.009056
0.275692,0.17484,0.007574
-0.063424,0.189622,0.001529
-0.043666,0.187834,0.000232
-0.010613,0.184371,0.001656
0.002593,0.182851,0.003216
0.146365,0.18937,0.005142
0.163092,0.187882,0.002842
0.18608,0.185077,0.004746
0.205766,0.182638,0.0066855
0.226056,0.180823,0.0039215
0.236461,0.1801,0.001255
-0.096422,0.192661,0.003249
0.057511,0.199193,0.004491
0.063985,0.197741,0.009525
0.08387,0.196553,0.00288
0.0937995,0.195647,0.001648
0.103305,0.193437,0.009403
0.110055,0.193253,0.005676
0.12643,0.191277,0.0069255
0.224611,0.199745,0.009263
0.234993,0.198961,0.0064925
0.244756,0.197585,0.007705
0.254874,0.196487,0.007017
0.272719,0.195426,0.00045
-0.001626,0.205254,0.007293
0.004872,0.205618,0.00019
0.018084,0.203322,0.005789
0.024635,0.202771,0.004648
0.031228,0.202212,0.003601
0.145583,0.209844,0.005348
0.165722,0.208021,0.001713
0.175102,0.205967,0.007417
0.185488,0.205405,0.003358
0.19522,0.203922,0.0052055
0.205404,0.203032,0.003186
0.214958,0.201317,0.0066875
-0.107482,0.217402,0.003624
-0.067922,0.213607,2.9e-05
-0.04136,0.210526,0.001215
0.076466,0.218381,0.0037055
0.099514,0.215697,0.003186
0.214346,0.219374,0.004579
0.221053,0.218572,0.004311
0.234048,0.216459,0.006765
0.248178,0.215583,0.001565
0.25417,0.213962,0.00633
0.267774,0.212424,0.005051
-0.012502,0.228967,0.003906
0.003979,0.227352,0.001842
0.02046,0.22537,0.001861
0.053419,0.22132,0.002511
0.141518,0.2289,0.003793
0.15448,0.226732,0.006514
0.168102,0.225698,0.002527
0.17401,0.223631,0.009923
0.20754,0.220027,0.005895
0.257171,0.229572,0.001886
0.266279,0.227166,0.00807
-0.072075,0.236291,0.002712
-0.0554235,0.234191,0.0034675
-0.045608,0.233285,0.001766
-0.0356145,0.231789,0.0036145
-0.025718,0.230773,0.002591
0.069027,0.238627,0.001547
0.075437,0.236913,0.00651
0.082229,0.237075,0.000671
0.108648,0.233563,0.001358
0.176497,0.239521,0.007537
0.183411,0.239047,0.005166
0.206283,0.235355,0.008148
0.22346,0.233804,0.00395
0.230019,0.232772,0.004645
-0.016733,0.248812,0.006228
0.0063365,0.246189,0.0043495
0.029399,0.243681,0.001742
0.036033,0.243022,0.000668
0.042616,0.241845,0.00257
0.055777,0.240159,0.002458
0.113768,0.247995,0.008027
0.133591,0.245416,0.0073755
0.157041,0.242993,0.003215
0.163921,0.242537,0.000744
0.235952,0.247597,0.0037865
0.255353,0.243933,0.0080305
0.265818,0.242946,0.005391
0.275822,0.241425,0.0057685
-0.043298,0.252827,0.002826
-0.023414,0.250314,0.002679
0.038174,0.259197,0.003395
0.05136,0.257242,0.004248
0.0745165,0.254449,0.0023135
0.094365,0.251875,0.0016445
0.152751,0.25944,0.004689
0.199544,0.253382,0.001107
0.212162,0.250343,0.007262
0.265574,0.258925,0.0024085
0.281059,0.254955,0.009976
-0.034331,0.268383,0.007271
-0.027884,0.268124,0.003878
-0.014738,0.267024,0.000225
-0.007976,0.264866,0.006783
0.086516,0.2683,0.008224
0.116251,0.264253,0.0069765
0.194754,0.268675,0.00735
0.204537,0.266804,0.009232
0.224465,0.263776,0.009129
0.247804,0.260301,0.008731
-0.041184,0.270153,0.002738
0.014075,0.279797,0.003093
0.0207,0.278298,0.005827
0.03387,0.276257,0.006449
0.066993,0.272526,0.001245
0.07347,0.2708,0.005186
0.135479,0.2785,0.003688
0.144946,0.275814,0.0095315
0.155292,0.275271,0.004706
0.161622,0.273612,0.008016
0.175221,0.272385,0.003929
0.184913,0.27034,0.0066105
0.237391,0.278804,0.009546
0.258863,0.277447,9.1e-05
-0.005753,0.282704,0.002946
0.069314,0.287851,0.007283
0.075974,0.287254,0.005336
0.082658,0.286846,0.002391
0.095787,0.284387,0.004516
0.109229,0.283119,0.000904
0.178072,0.289309,0.005409
0.18446,0.287741,0.007823
0.198411,0.286801,0.002018
0.204545,0.284814,0.006449
0.211197,0.283818,0.005981
0.009948,0.296647,0.008467
0.056227,0.291073,0.001451
0.138246,0.295555,0.0062
0.155253,0.293961,0.001147
0.171954,0.291488,0.000108
0.254922,0.297733,0.008541
0.265777,0.297089,0.0034855
0.275757,0.295199,0.004182
-0.076013,0.309574,0.009437
0.078976,0.306289,0.001048
0.085454,0.304364,0.004993
0.095296,0.302525,0.0060405
0.195696,0.309511,0.002111
0.214921,0.304652,0.008582
0.225346,0.303682,0.0050545
0.249484,0.300713,0.000184
-0.08286,0.31109,0.007101
0.045735,0.310259,0.007181
0.12885,0.319776,0.0075
0.135839,0.319695,0.002871
0.142113,0.317611,0.006963
0.155219,0.314969,0.008498
0.185805,0.311398,0.0014625
0.095911,0.325857,0.005929
0.105745,0.323884,0.0069865
0.115735,0.322363,0.006215
0.122699,0.322519,0.0005
0.206167,0.329985,0.008796
0.226731,0.327273,0.004644
0.253397,0.322179,0.005198
0.267464,0.320692,0.000912
-0.073912,0.331077,0.000593
0.0661345,0.330978,0.005959
0.076219,0.330435,0.001011
0.173275,0.336865,0.00571
0.187022,0.33538,0.001647
0.19301,0.33266,0.007905
0.274136,0.337667,0.006263
-0.036549,0.348315,0.007627
-0.029897,0.347289,0.00716
-0.016823,0.346653,0.000374
0.103656,0.349657,0.0060775
0.113896,0.349115,0.000839
0.127069,0.346118,0.003068
0.147067,0.342769,0.001644
0.153449,0.340767,0.004805
0.216902,0.348067,0.009139
0.234103,0.345787,0.0051865
0.244758,0.344905,0.000765
0.251149,0.34296,0.003308
0.264897,0.340948,0.000843
0.287353,0.349358,0.00655
-0.076828,0.356506,0.002587
-0.043357,0.350301,0.004276
0.0639135,0.356952,0.0062945
0.073892,0.355523,0.004676
0.080397,0.353575,0.007506
0.093882,0.352351,0.002643
0.163868,0.358755,0.007931
0.184203,0.355837,0.004065
0.197533,0.35328,0.003857
0.203817,0.351151,0.007211
0.254357,0.357068,0.003026
0.274681,0.353183,0.002145
-0.005771,0.369983,0.005726
0.007484,0.368233,0.002989
0.114382,0.36942,0.004248
0.200698,0.367779,0.003595
0.226934,0.361381,0.00741
0.274038,0.36739,0.006566
0.283956,0.364992,0.007617
-0.035768,0.375713,0.00504
-0.025876,0.37484,0.001333
-0.0157575,0.371907,0.005448
0.064504,0.378674,0.005998
0.074601,0.377816,0.001965
0.08447,0.375128,0.004723
0.09109,0.37385,0.00465
0.163738,0.374415,0.0065845
0.173374,0.371522,0.009876
0.187466,0.370678,0.002873
0.243583,0.373247,0.008543
0.254677,0.372912,0.001728
0.01138,0.388742,0.007186
0.031313,0.38564,0.004215
0.051247,0.380907,0.007383
0.100706,0.387256,0.006503
0.177007,0.387413,0.008155
0.190952,0.386276,0.001994
0.203645,0.381954,0.007519
0.214379,0.381357,0.0019375
0.233031,0.388024,0.008696
0.247214,0.38665,0.003106
0.26107,0.384445,0.000449
0.274093,0.380656,0.003608
0.28204,0.384694,0.0049925
-0.025239,0.395859,0.0073025
-0.01542,0.395601,0.001192
-0.001934,0.391381,0.007015
0.004752,0.390197,0.00665
0.040943,0.399553,0.005923
0.067669,0.395737,0.000183
0.074265,0.393629,0.002953
0.123829,0.398468,0.008745
0.164305,0.39195,0.001899
0.186479,0.398422,0.007852
0.199942,0.395873,0.006575
0.207283,0.395919,0.00121
0.213225,0.392757,0.00739
0.2201,0.391721,0.005914
0.246196,0.398164,0.007546
0.256681,0.396615,0.005028
0.26354,0.395472,0.003688
0.273465,0.392816,0.005101
-0.075836,0.407443,0.00108
-0.069044,0.405792,0.002238
-0.048897,0.402162,0.001205
0.014256,0.406214,0.00144
0.0243055,0.403795,0.0028465
0.034306,0.401086,0.005269
0.077541,0.409552,0.004286
0.084341,0.409293,0.000281
0.117576,0.401774,0.001925
0.160126,0.40503,0.004967
0.173032,0.400923,0.00924
0.195837,0.408783,0.009596
0.203537,0.409672,0.001397
0.226725,0.403887,0.0032375
0.274285,0.409099,0.002856
0.283922,0.405931,0.005698
-0.04609,0.418768,0.000407
-0.039346,0.417309,0.00074
-0.025743,0.412973,0.006241
0.030886,0.418323,0.007946
0.057613,0.414723,0.000981
0.064282,0.413102,0.001735
0.093458,0.419075,0.006476
0.113745,0.416185,0.001546
0.123673,0.413724,0.0024885
0.247295,0.415174,0.003418
-0.02258,0.429919,0.006772
-0.015836,0.428383,0.007229
-0.002463,0.425298,0.008102
0.004206,0.424032,0.007629
0.053656,0.429439,0.000925
0.063561,0.425936,0.0053255
0.073627,0.424425,0.003099
0.08678,0.420204,0.007569
0.11656,0.42891,0.002184
0.149577,0.42023,0.006204
0.156697,0.42011,0.001607
0.186603,0.428197,0.00676
0.196351,0.425179,0.0090615
0.206901,0.424138,0.004778
0.213768,0.42304,0.003187
0.220685,0.421944,0.001684
0.25449,0.429684,0.0055275
0.278847,0.42541,0.000818
-0.062878,0.438669,0.005998
-0.042903,0.435926,0.001038
-0.036184,0.434707,0.000407
0.006836,0.437957,0.006414
0.013497,0.437812,0.002138
0.0235505,0.435969,0.0010255
0.033525,0.431776,0.00759
0.089553,0.43305,0.008233
0.10317,0.431585,0.003284
0.146546,0.437196,0.007763
0.173621,0.432295,0.003515
0.210792,0.439837,0.006663
0.223955,0.436108,0.008309
0.231133,0.435544,0.004902
-0.040051,0.447804,0.007525
-0.013248,0.442438,0.00604
-0.006637,0.44233,0.001675
0.016243,0.449949,0.006741
0.0262995,0.449257,0.0018165
0.036279,0.445244,0.007397
0.043045,0.445651,0.001326
0.056323,0.440766,0.007433
0.099924,0.448275,0.006951
0.106985,0.448859,0.000181
0.116857,0.445662,0.00295
0.133457,0.44121,0.004839
0.177795,0.449177,0.002611
0.183846,0.445719,0.008479
0.194837,0.445861,0.0003215
0.203786,0.440665,0.009212
0.263197,0.448037,0.004863
0.274019,0.446871,0.000466
0.286236,0.441212,0.0077355
-0.060598,0.454537,0.000221
-0.047077,0.451454,0.000625
-0.010554,0.456518,0.00502
0.00958,0.451907,0.005363
0.060036,0.459312,0.001564
0.080171,0.454887,0.000804
0.093562,0.451588,0.001426
0.137742,0.459325,0.001143
0.14399,0.455885,0.006872
0.154405,0.454955,0.002193
0.164534,0.452795,0.001402
0.215776,0.458939,0.00782
0.222415,0.457149,0.008113
0.243059,0.453246,0.004423
0.253312,0.451094,0.0032405
0.0164475,0.4683,0.005092
0.039901,0.463341,0.003554
0.053357,0.460765,0.001918
0.097219,0.466681,0.008367
0.104117,0.466364,0.004417
0.117712,0.464447,0.000349
0.124172,0.461618,0.004086
0.175664,0.46913,0.00749
0.264525,0.465977,0.0063865
0.281178,0.461166,0.007595
-0.007115,0.475037,0.001294
0.063967,0.47622,0.003878
0.070768,0.475649,0.000734
0.090823,0.470414,0.001879
0.135674,0.479615,0.006335
0.155991,0.475518,0.003488
0.165725,0.471869,0.0069125
0.214284,0.479409,0.005654
0.234023,0.473235,0.008385
0.244832,0.472288,0.003248
-0.074667,0.4899,0.003887
-0.061062,0.486351,0.004975
-0.040805,0.482096,0.003637
-0.034176,0.481404,0.000982
0.016965,0.487534,0.003934
0.023696,0.484797,0.007236
0.030408,0.483021,0.007721
0.105749,0.487993,0.0040675
0.11565,0.4849,0.005654
0.125793,0.48275,0.0046105
0.173655,0.488651,0.009367
0.184148,0.48742,0.005311
0.204544,0.482949,0.0029665
0.268087,0.489982,0.00405
0.274433,0.487342,0.006362
0.282254,0.487556,0.000267
-0.016852,0.496945,0.000209
-0.0065805,0.492867,0.004977
0.003509,0.490088,0.005937
0.055384,0.499918,0.006209
0.068809,0.49679,0.005462
0.075368,0.493905,0.008887
0.088955,0.492033,0.00458
0.09574,0.491073,0.002433
0.147503,0.497962,0.002736
0.161027,0.494781,0.001799
0.244523,0.496412,0.004188
-0.030383,0.500057,0.000665
0.015035,0.509734,0.007152
0.021748,0.507896,0.007516
0.035252,0.506195,0.002774
0.041982,0.504329,0.00325
0.10703,0.507233,0.00634
0.114059,0.507546,0.000453
0.124032,0.504166,0.002608
0.134174,0.502078,0.000953
0.200781,0.508434,0.004086
0.224822,0.503227,0.0005605
-0.018743,0.518781,0.005603
-0.005288,0.517213,0.000526
0.008287,0.512564,0.003981
0.059974,0.51908,0.007518
0.073546,0.516525,0.004946
0.100487,0.510246,0.002778
0.166765,0.516074,0.008471
0.255064,0.518974,0.002173
0.261859,0.517257,0.001623
0.275438,0.513441,0.001384
-0.05957,0.529697,0.003801
-0.032383,0.523024,0.003301
-0.025596,0.521242,0.003491
0.019647,0.529251,0.00868
0.026404,0.529766,0.00249
0.046603,0.523314,0.005638
0.053246,0.520006,0.00987
0.133295,0.525464,0.007919
0.140098,0.524016,0.006869
0.154045,0.522446,0.001083
0.234602,0.524403,0.003258
0.241194,0.522041,0.004452
-0.000694,0.536641,0.003044
0.086379,0.539105,0.005904
0.0966075,0.537219,0.0035745
0.106448,0.532866,0.007797
0.113559,0.533201,0.001975
0.187747,0.538962,0.000568
0.193941,0.53528,0.005244
0.204435,0.533548,0.0021145
0.214475,0.530412,0.002753
0.253564,0.538658,0.007838
0.261338,0.53897,0.001675
0.273657,0.532288,0.008753
0.07965,0.54082,0.006287
0.139869,0.549477,0.008573
0.167408,0.54441,0.001567
0.180919,0.540557,0.001509
0.227469,0.549116,0.001503
-0.06891,0.554941,0.001866
-0.04846,0.550256,3.8e-05
0.012111,0.55913,0.00683
0.025668,0.556263,0.004642
0.035827,0.552384,0.0075335
0.045997,0.55099,0.00389
0.05279,0.550044,0.001493
0.116445,0.556822,0.0070405
0.126319,0.552816,0.00989
0.133195,0.551687,0.007806
0.186357,0.559177,0.006752
0.1963,0.555631,0.0081395
0.220909,0.551533,0.00053
0.283774,0.551693,0.006779
-0.004886,0.565285,0.0030405
0.079438,0.567983,0.005739
0.0963375,0.563342,0.0052285
0.106724,0.562272,0.000511
0.166805,0.56767,0.000538
0.176424,0.562706,0.005481
0.239424,0.564093,0.009855
0.247418,0.565185,0.00169
0.253514,0.561576,0.005579
0.278349,0.569081,0.007015
0.284899,0.566459,0.008221
-0.0458325,0.576224,0.003822
-0.028664,0.570371,0.006691
0.045573,0.576685,0.008284
0.05925,0.575465,0.001581
0.066078,0.57371,0.001131
0.072746,0.57085,0.003383
0.132613,0.575913,0.005153
0.153188,0.571227,0.001775
0.19974,0.578962,0.003984
0.212529,0.57257,0.009495
0.226774,0.570541,0.004123
0.244201,0.578755,0.009684
0.25838,0.576167,0.005397
-0.00195,0.589906,0.009266
0.0150575,0.586154,0.0065225
0.025256,0.583274,0.006434
0.035483,0.582234,0.001766
0.099003,0.587203,0.00221
0.105718,0.584967,0.002706
0.17261,0.586832,0.005268
0.186447,0.58386,0.002277
0.192976,0.581039,0.004015
0.234879,0.584261,0.0040335
-0.022636,0.599351,0.000648
0.00478,0.5913,0.001121
0.0547345,0.598279,0.0072565
0.065044,0.597122,0.002717
0.138577,0.596101,0.008159
0.14518,0.593356,0.009722
0.159308,0.592014,0.002828
0.194327,0.597362,0.0035695
0.265258,0.596957,0.008202
0.28567,0.590372,0.007828
-0.056935,0.608047,0.003496
0.017358,0.608684,0.009098
0.024127,0.607734,0.006474
0.0343915,0.606471,0.002212
0.044619,0.603637,0.001675
0.125,0.600024,0.008749
0.132306,0.600752,0.002049
0.156586,0.606702,0.009595
0.164152,0.608124,0.00111
0.177074,0.601284,0.00715
0.238947,0.607991,0.003211
0.258995,0.600395,0.005299
-0.003248,0.618489,0.000415
0.074342,0.61649,0.0070775
0.084438,0.612306,0.009532
0.126265,0.616961,0.008226
0.2046,0.617578,0.007046
0.224904,0.610935,0.006833
0.232214,0.610247,0.003216
0.287731,0.61717,0.001558
0.030082,0.629772,0.008098
0.043831,0.628948,0.000236
0.106311,0.62606,0.0021555
0.116423,0.622309,0.003308
0.184279,0.624115,0.007516
0.195076,0.623221,0.001776
0.246126,0.629081,0.006445
0.26316,0.623405,0.006111
-0.05153,0.632455,0.001419
-0.044568,0.630037,0.002234
0.0061245,0.638188,0.005813
0.068701,0.637096,0.004144
0.075507,0.634797,0.004455
0.1645,0.633327,0.001808
0.219143,0.638731,0.005751
0.225584,0.635239,0.00842
0.235936,0.632375,0.0069435
-0.02492,0.64943,0.00218
0.044791,0.644086,0.0056425
0.055134,0.6429,0.000898
0.116476,0.646706,0.007159
0.123122,0.643447,0.009436
0.130202,0.643008,0.005363
0.144089,0.640065,0.001849
0.199143,0.647154,0.002534
0.212109,0.640206,0.007693
0.275098,0.645945,0.004963
-0.031925,0.652368,0.000405
0.020827,0.652977,0.002862
0.075572,0.659963,0.00779
0.089497,0.658063,0.002029
0.103096,0.652816,0.003653
0.175323,0.655383,0.002476
0.24808,0.656492,0.003161
-0.020669,0.667409,9.6e-05
-0.006785,0.662636,0.0009
0.0654045,0.664351,0.005624
0.13062,0.668226,0.007718
0.144516,0.665201,0.004079
0.158212,0.660874,0.003295
0.214269,0.669229,0.002029
0.224171,0.664653,0.003958
0.234083,0.66006,0.006003
0.24176,0.660136,0.000525
0.28259,0.666349,0.009703
-0.034458,0.670471,0.00305
0.034509,0.674474,0.005818
0.041403,0.672993,0.004096
0.103359,0.677467,0.008083
0.269891,0.673895,0.004343
0.276569,0.670956,0.005212
0.076102,0.68822,0.005235
0.083101,0.687474,0.001835
0.096782,0.682503,0.002298
0.158957,0.685464,0.008976
0.172814,0.681809,0.006354
0.225347,0.689546,0.006038
0.235868,0.686736,0.003955
0.290344,0.686775,0.009223
-0.034734,0.69839,0.003748
0.048525,0.696224,0.00829
0.062465,0.694839,0.001285
0.11802,0.699945,0.009354
0.138638,0.693405,0.007702
0.146042,0.694212,0.000931
0.152801,0.691543,0.001285
0.215879,0.696175,9.5e-05
-0.041805,0.701461,0.002139
0.013983,0.709872,0.004596
0.0243855,0.705446,0.006355
0.104386,0.705546,0.007868
0.111132,0.702093,0.009958
0.188045,0.704437,0.004054
0.235876,0.707642,0.009268
0.254132,0.705024,0.0012285
0.289117,0.703881,0.00919
0.076909,0.7153,0.008003
0.083783,0.712767,0.008152
0.160745,0.715089,0.003069
0.215902,0.717287,0.005636
0.226282,0.713791,0.0047655
0.254928,0.716942,0.009838
0.266135,0.715904,0.003804
-0.034895,0.728287,0.001389
0.126374,0.727788,0.003181
0.136602,0.723302,0.0045155
0.195983,0.72773,0.000483
0.202057,0.72175,0.007252
0.228175,0.729376,0.0064
0.235835,0.7295,0.00081
0.274878,0.728003,0.008249
-0.048817,0.731475,0.004676
0.035582,0.733847,0.000624
0.042514,0.73093,0.001473
0.098748,0.737548,0.004152
0.105401,0.732648,0.008784
0.112499,0.731794,0.00544
0.164636,0.737412,0.0048435
0.174754,0.732732,0.00626
0.181935,0.731683,0.003107
0.207956,0.738693,0.003924
0.214499,0.734853,0.006166
0.007662,0.743615,0.001068
0.07453,0.746253,0.0047245
0.13378,0.749979,0.003545
0.140912,0.749026,0.000181
0.154148,0.740274,0.007025
0.187517,0.747473,0.00259
0.234569,0.746893,0.003566
0.248238,0.741237,0.00381
0.274825,0.748345,0.004791
0.04332,0.758274,0.003992
0.050298,0.75664,0.002093
0.112993,0.75775,0.003822
0.12692,0.753191,0.002394
0.173444,0.751429,0.005354
0.180859,0.751285,0.000429
0.20735,0.758966,0.001633
0.227992,0.750832,0.001223
0.253722,0.755039,0.008193
0.0258255,0.76412,0.005131
0.036382,0.762658,0.000548
0.078238,0.769833,0.006169
0.098979,0.761329,0.007164
0.135753,0.767776,0.002568
0.153132,0.761394,0.001828
0.179371,0.768054,0.005428
0.186682,0.767426,0.001321
0.226111,0.765569,0.009597
0.233044,0.762956,0.009219
0.24072,0.763099,0.003617
0.0539175,0.779541,0.0055075
