3.5863,1.97164,2.06109
3.60148,1.9513,2.06288
3.6047,1.92453,2.05797
3.6109,1.89945,2.05485
3.62407,1.87809,2.05574
3.63473,1.85541,2.0553
3.64925,1.83468,2.05708
3.67247,1.81821,2.06377
3.68677,1.79722,2.06555
3.6945,1.77301,2.06377
3.69479,1.74533,2.05797
3.70462,1.72225,2.05753
3.7257,1.70433,2.06332
3.74016,1.68328,2.06555
3.75042,1.6603,2.06555
3.76054,1.63725,2.06555
3.77134,1.6145,2.066
3.782,1.59168,2.06644
3.79169,1.56844,2.06644
3.80042,1.54481,2.066
3.80484,1.51947,2.06332
3.80742,1.49348,2.05976
3.82236,1.47234,2.06288
3.833,1.44949,2.06377
3.83511,1.42345,2.0602
3.8505,1.40235,2.06377
3.85903,1.3787,2.06377
3.85728,1.35144,2.05842
3.8655,1.32774,2.05842
3.88375,1.30743,2.06377
3.89595,1.28498,2.066
3.8995,1.25967,2.06377
3.90119,1.23383,2.06065
3.91467,1.21172,2.06377
3.92117,1.18742,2.06332
3.92152,1.1613,2.05976
3.93545,1.13921,2.06332
3.94667,1.11626,2.06555
3.95345,1.09203,2.06555
3.95575,1.06658,2.06332
3.9553,1.04047,2.05976
3.97288,1.01907,2.06555
3.99034,0.9975,2.07135
3.99117,0.971725,2.06867
3.99183,0.945978,2.066
3.99582,0.921064,2.06511
4.00139,0.896529,2.06511
4.00682,0.87196,2.06511
4.00772,0.846432,2.06288
4.00144,0.819487,2.05708
4.00639,0.794919,2.05708
4.0235,0.772688,2.06332
4.0308,0.748477,2.06466
4.03708,0.724047,2.06555
4.04145,0.699262,2.06555
4.04125,0.673714,2.06332
4.03824,0.647769,2.05976
4.04921,0.624071,2.06332
4.05651,0.599739,2.06511
4.06011,0.574837,2.06511
4.06356,0.549914,2.06511
4.06686,0.52497,2.06511
4.06645,0.499569,2.06332
4.05788,0.473257,2.05753
4.05982,0.448251,2.05708
4.06961,0.424076,2.06065
4.06501,0.398397,2.05708
4.06382,0.373118,2.0553
4.08565,0.349862,2.06511
4.13501,0.328557,2.08874
4.13784,0.303245,2.08918
4.13605,0.277609,2.0874
4.14035,0.25239,2.08874
4.1454,0.227177,2.09052
4.12973,0.200906,2.08205
4.07633,0.173229,2.05485
4.07911,0.148279,2.05574
4.07994,0.123247,2.05574
4.08062,0.098211,2.05574
4.08025,0.0731546,2.0553
4.07615,0.0480632,2.05307
4.06921,0.023009,2.0495
4.07196,-0.00196014,2.05084
4.06918,-0.0269282,2.0495
4.0761,-0.0519849,2.05307
4.08108,-0.0770943,2.05574
4.08052,-0.102134,2.05574
4.07982,-0.12717,2.05574
4.08165,-0.1523,2.05708
4.08869,-0.177689,2.06109
4.08037,-0.202421,2.05753
4.07547,-0.227255,2.05574
4.07311,-0.252202,2.0553
4.07148,-0.27719,2.0553
4.06524,-0.301837,2.05307
4.05171,-0.325845,2.04727
4.04875,-0.350623,2.04682
4.05811,-0.376531,2.05262
4.05928,-0.401776,2.0544
4.05407,-0.426395,2.05307
4.04337,-0.450373,2.04905
4.04764,-0.476008,2.05262
4.04465,-0.500835,2.05262
4.0344,-0.524722,2.04905
4.0382,-0.550432,2.05262
4.03917,-0.57583,2.05485
4.03556,-0.600603,2.05485
4.0318,-0.625353,2.05485
4.02789,-0.65008,2.05485
4.02383,-0.674782,2.05485
4.01961,-0.699459,2.05485
4.01084,-0.723317,2.05262
3.99576,-0.745945,2.04727
3.98672,-0.769602,2.04504
3.98016,-0.7937,2.04415
3.13563,-0.665653,1.61922
3.06529,-0.709949,1.58979
3.06262,-0.729158,1.59068
4.17458,-1.02056,2.1632
4.17605,-1.04811,2.16721
4.17475,-1.07506,2.16989
4.17846,-1.10339,2.17524
4.16124,-1.12621,2.16989
4.15511,-1.15196,2.17033
3.55723,-1.00992,1.86446
3.48219,-1.01177,1.82879
3.4682,-1.03082,1.82477
3.46266,-1.05235,1.82522
3.45358,-1.07278,1.82388
4.88356,-1.58241,2.57966
4.87291,-1.61207,2.57921
4.86292,-1.64194,2.57921
4.81213,-1.65776,2.55781
0,0,0
0,0,0
0,0,0
0,0,0
0,0,0
0,0,0
0,0,0
0,0,0
0,0,0
0,0,0
0,0,0
0,0,0
0,0,0
0,0,0
0,0,0
0,0,0
0,0,0
0,0,0
0,0,0
0,0,0
0,0,0
0,0,0
0,0,0
0,0,0
0,0,0
0,0,0
0,0,0
0,0,0
0,0,0
0,0,0
0,0,0
0,0,0
0,0,0
0,0,0
0,0,0
0,0,0
0,0,0
0,0,0
0,0,0
0,0,0
0,0,0
0,0,0
0,0,0
0,0,0
0,0,0
0,0,0
-1.15513,-1.01944,0.789873
-1.17552,-1.02469,0.799237
0,0,0
0,0,0
0,0,0
-4.29852,-0.315067,2.16944
-4.30216,-0.288806,2.17033
-4.3244,-0.263662,2.18059
-4.35811,-0.238895,2.19664
-4.3434,-0.211362,2.18862
-5.26709,-0.419951,2.59537
-5.29378,-0.389425,2.60719
-5.28979,-0.356507,2.60413
-4.42232,-0.270126,2.17995
-5.30813,-0.292369,2.61113
-5.30264,-0.259436,2.60763
-5.33287,-0.228147,2.62164
-5.30632,-0.194379,2.60807
-5.30202,-0.161648,2.60544
-5.29572,-0.128932,2.60194
-5.31259,-0.0967423,2.60982
-5.32657,-0.0643162,2.61638
-5.32057,-0.0315895,2.61332
-3.2869,0.00221112,1.62314
-3.27462,0.0625034,1.61745
-4.20375,0.130701,2.07052
-4.19209,0.156101,2.06527
-4.19105,0.18182,2.06527
-4.19345,0.207707,2.06702
-4.20287,0.234023,2.07227
-4.21033,0.260353,2.07665
-4.20058,0.285641,2.07271
-4.19695,0.311279,2.07183
-4.19586,0.337096,2.07227
-4.18744,0.362299,2.06921
-4.18425,0.387903,2.06877
-4.17821,0.41322,2.06702
-4.17559,0.438849,2.06702
-4.17818,0.465053,2.06964
-4.17793,0.490994,2.07096
-4.17484,0.51662,2.07096
-4.16446,0.541306,2.06745
-4.16551,0.567451,2.06964
-4.16462,0.593377,2.07096
-4.1609,0.61892,2.07096
-4.15703,0.644439,2.07096
-4.153,0.669934,2.07096
-4.14881,0.695403,2.07096
-4.1418,0.720387,2.06964
-4.132,0.744836,2.06702
-4.12735,0.770175,2.06702
-4.13049,0.797011,2.07096
-4.13081,0.823389,2.07358
-4.12568,0.84872,2.07358
-4.11864,0.873647,2.07271
-4.11496,0.899285,2.07358
-4.10234,0.922945,2.07008
-4.09135,0.946888,2.06745
-4.08721,0.972388,2.06833
-4.08117,0.997449,2.06833
-4.06712,1.02051,2.06439
-4.06601,1.04679,2.06702
-4.06038,1.07194,2.06745
-4.05633,1.09754,2.06877
-4.04085,1.12001,2.06439
-4.05231,1.2039,2.08102
-4.0087,1.2178,2.06264
-3.99686,1.24105,2.06045
-3.98831,1.26528,2.06001
-3.98219,1.29028,2.06089
-3.98017,1.31666,2.06395
-3.97883,1.34335,2.06745
-3.97477,1.3692,2.06964
-3.9629,1.39237,2.06789
-3.95767,1.41787,2.06964
-3.96157,1.44674,2.07621
-3.94503,1.46821,2.07227
-3.92165,1.48698,2.06483
-3.92336,1.51522,2.07052
-3.91148,1.53828,2.06921
-3.89862,1.56092,2.06745
-3.89147,1.58582,2.06877
-3.89164,1.61379,2.07402
-3.87835,1.63625,2.07227
-3.87071,1.66107,2.07358
-3.85633,1.683,2.07139
-3.84511,1.70627,2.07096
-3.83948,1.73204,2.07358
-3.82715,1.75482,2.07271
-3.80816,1.77448,2.06833
-3.79963,1.79896,2.06964
-3.79339,1.82458,2.07227
-3.77889,1.84624,2.07052
-3.75943,1.86541,2.06614
-3.7447,1.88682,2.06439
-3.73786,1.91222,2.06702
-3.73404,1.93925,2.07139
-3.71889,1.96045,2.06964
-3.70123,1.98027,2.06658
-3.68664,2.00166,2.06527
-3.67508,2.02468,2.0657
-3.66573,2.04894,2.06745
-3.64996,2.06962,2.0657
-3.63329,2.08974,2.06351
-3.62118,2.11245,2.06395
-3.61744,2.14011,2.06921
-3.59961,2.1595,2.06658
-3.58245,2.17921,2.06439
-3.56671,2.19974,2.06308
-3.55086,2.22015,2.06176
-3.54021,2.24382,2.06351
-3.52637,2.2655,2.06351
-3.50713,2.28367,2.06045
-3.49305,2.30514,2.06045
-3.48557,2.33103,2.06439
-3.47567,2.35539,2.06702
-3.4567,2.37362,2.06439
-3.43543,2.39017,2.06045
-3.41849,2.40966,2.05914
-3.40584,2.43215,2.06045
-3.39377,2.45511,2.0622
-3.37646,2.47429,2.06089
-3.367,2.49925,2.06439
-3.34512,2.515,2.06045
-3.3282,2.53439,2.05958
-3.31401,2.55586,2.06045
-3.30394,2.58057,2.06395
-3.28522,2.59857,2.0622
-3.26359,2.61419,2.0587
-3.25448,2.63982,2.06308
-3.24031,2.66145,2.06439
-3.22184,2.67956,2.06308
-3.20947,2.70275,2.0657
-3.18872,2.71889,2.06308
-3.17334,2.73958,2.06395
-3.1585,2.76077,2.06527
-3.14015,2.77891,2.06439
-3.12371,2.79873,2.06483
-3.10715,2.81844,2.06527
-3.08913,2.83685,2.06483
-3.07233,2.85636,2.06527
-3.05605,2.87639,2.06614
-3.0416,2.89818,2.06833
-3.02376,2.91679,2.06833
-3.00774,2.93717,2.06964
-2.98134,2.94736,2.06395
-2.96257,2.96497,2.06351
-2.94621,2.98501,2.06483
-2.92847,3.00367,2.06527
-2.91061,3.02223,2.0657
-2.89015,3.03808,2.06439
-2.86776,3.05183,2.06176
-2.84653,3.06673,2.06001
-2.82948,3.08613,2.06133
-2.81533,3.10876,2.06483
-2.8004,3.13066,2.06789
-2.77935,3.14577,2.06658
-2.75112,3.15261,2.06001
-2.75229,3.19325,2.07533
-2.71981,3.19502,2.0657
-2.69204,3.20203,2.05958
-2.69132,3.24129,2.07402
-2.6691,3.25497,2.07227
-2.62698,3.24405,2.0552
-2.61321,3.26783,2.06001
-2.60092,3.29367,2.06614
-2.58011,3.30886,2.0657
-2.55646,3.32036,2.06308
-2.53441,3.33384,2.06176
-2.51444,3.35004,2.0622
-2.50295,3.37768,2.06964
-2.45973,3.40596,2.06833
-2.4252,3.40196,2.05695
-2.39755,3.40723,2.05126
-2.37711,3.42261,2.0517
-2.35657,3.43787,2.05213
-2.33896,3.45748,2.0552
-2.31671,3.47027,2.05432
-2.29735,3.48742,2.05607
-2.27493,3.49995,2.0552
-1.99001,3.72661,2.07971
-1.95327,3.71251,2.06527
-1.92962,3.72283,2.06439
-1.90306,3.7274,2.06045
-1.88015,3.739,2.06045
-1.86597,3.76819,2.07008
-1.83768,3.76906,2.06439
-1.81452,3.78027,2.06439
-1.79129,3.79133,2.06439
-1.76799,3.80225,2.06439
-1.74425,3.81221,2.06395
-1.71935,3.81956,2.0622
-1.6977,3.83415,2.06439
-1.67379,3.84367,2.06395
-1.64875,3.85056,2.0622
-1.62684,3.86475,2.06439
-1.60517,3.87964,2.06702
-1.57929,3.88442,2.06439
-1.55342,3.88903,2.06176
-1.52986,3.89933,2.0622
-1.50558,3.9078,2.06176
-1.48253,3.91949,2.06308
-1.45846,3.92851,2.06308
-1.43216,3.93147,2.06001
-1.41165,3.95034,2.06527
-1.3859,3.95469,2.06308
-1.35597,4.02677,2.09153
-1.61644,4.9993,2.58093
-1.58601,5.00998,2.58137
-1.55257,5.01104,2.57699
-1.52022,5.01531,2.57436
-1.2094,4.08257,2.09591
-1.18006,4.07523,2.08847
-1.15307,4.07548,2.08496
-1.12587,4.07468,2.08102
-1.09944,4.0763,2.0784
-1.07372,4.08036,2.07709
-1.04687,4.07991,2.07358
-1.02028,4.08015,2.07052
-0.994374,4.08284,2.06877
-0.968679,4.08624,2.06745
-0.944196,4.09474,2.06877
-0.919844,4.10396,2.07052
-0.83907,4.09554,2.05826
-0.81586,4.11031,2.06308
-0.793522,4.13025,2.07052
-0.768165,4.13504,2.07052
-0.742459,4.1379,2.06964
-0.71613,4.13707,2.06702
-0.690583,4.1405,2.06658
-0.666025,4.14998,2.06921
-0.640272,4.15221,2.06833
-0.588127,4.15175,2.06439
-0.562885,4.15706,2.06527
-0.537947,4.16489,2.06745
-0.513598,4.17793,2.07227
-0.487953,4.181,2.07227
-0.46209,4.18213,2.07139
-0.435479,4.17595,2.06702
-0.409405,4.17407,2.06483
-0.383702,4.1756,2.06439
-0.358152,4.17878,2.06483
-0.332938,4.18627,2.06745
-0.307911,4.1972,2.07183
-0.281907,4.19542,2.07008
-0.25577,4.19079,2.06702
-0.230302,4.19677,2.06921
-0.204546,4.19811,2.06921
-0.17847,4.1921,2.0657
-0.152745,4.19311,2.0657
-0.127182,4.19936,2.06833
-0.101458,4.20186,2.06921
-0.0755716,4.19701,2.06658
-0.0497716,4.1938,2.06483
0.0788798,4.19245,2.06439
0.104926,4.20537,2.07096
0.130051,4.18218,2.06001
0.156916,4.21455,2.07621
0.182239,4.20093,2.07008
0.208536,4.21051,2.07533
0.236332,4.24506,2.09284
0.287144,4.22301,2.08365
0.313182,4.22296,2.08453
0.338661,4.21558,2.0819
0.364674,4.21521,2.08278
0.435869,4.14698,2.05301
0.461208,4.14333,2.05257
0.487871,4.15114,2.05782
0.513333,4.14807,2.05782
0.53751,4.13503,2.05301
0.563354,4.13522,2.05476
0.58922,4.13525,2.05651
0.6134,4.12355,2.05257
0.806911,5.21182,2.59056
0.838732,5.20588,2.59012
0.870659,5.20064,2.59012
0.903626,5.2014,2.59318
0.93711,5.20461,2.59756
0.968535,5.19611,2.59625
0.999213,5.18389,2.59318
0.82269,4.12729,2.07183
0.847458,4.11952,2.07052
0.881633,4.15647,2.09153
0.903107,4.13253,2.08234
0.920783,4.09269,2.06527
0.948301,4.09748,2.07052
0.972388,4.08721,2.06833
0.996173,4.07593,2.0657
1.02029,4.06625,2.06395
1.04433,4.05643,2.0622
1.06989,4.05255,2.06351
1.09543,4.04851,2.06483
1.12073,4.04345,2.0657
1.14626,4.03909,2.06702
1.17027,4.02939,2.0657
1.19573,4.02472,2.06702
1.22275,4.02505,2.07096
1.24503,4.00975,2.06702
1.2688,3.99946,2.0657
1.2947,3.99588,2.06789
1.31863,3.98615,2.06702
1.34392,3.98054,2.06833
1.36832,3.97222,2.06833
1.39089,3.95866,2.0657
1.41424,3.94751,2.06439
1.43936,3.94129,2.0657
1.46539,3.93744,2.06833
1.49016,3.93006,2.06921
1.51328,3.91832,2.06789
1.53762,3.9098,2.06833
1.56025,3.89695,2.06658
1.58447,3.88814,2.06702
1.61036,3.88333,2.06964
1.63485,3.87503,2.07052
1.65895,3.86575,2.07096
1.68264,3.8555,2.07096
1.70517,3.84264,2.06964
1.7254,3.82472,2.0657
1.74734,3.8108,2.06395
1.77372,3.80652,2.06745
1.79551,3.79232,2.0657
1.85136,3.7894,2.07621
1.87259,3.77394,2.07402
1.89329,3.75756,2.07139
1.9159,3.74507,2.07096
1.979,3.69886,2.06527
2.01108,3.70404,2.0749
2.0774,3.71677,2.09591
2.10504,3.71256,2.10072
2.12331,3.69178,2.09635
2.73157,4.49247,2.58268
2.76191,4.48022,2.58531
2.78697,4.45937,2.58312
2.81476,4.44295,2.58355
2.84342,4.42786,2.58487
2.29494,3.52447,2.07052
2.31405,3.50657,2.06833
2.33851,3.49679,2.07096
2.3564,3.47716,2.06789
2.3782,3.46338,2.06833
2.39735,3.44577,2.06658
2.41949,3.43246,2.06745
2.44154,3.41902,2.06833
2.46616,3.40908,2.07139
2.4865,3.39315,2.07096
2.5062,3.37639,2.07008
2.52633,3.36023,2.06964
2.54854,3.34681,2.07096
2.56957,3.33182,2.07139
2.58555,3.31032,2.06789
2.60692,3.2958,2.06877
2.62822,3.28115,2.06964
2.64887,3.26566,2.07008
2.66772,3.24796,2.06921
2.68358,3.22668,2.06614
2.70795,3.21566,2.06964
2.73288,3.20515,2.07358
2.75777,3.19445,2.07752
2.87474,2.90774,2.01361
2.90016,2.89768,2.01886
2.98565,2.94685,2.06527
3.00238,2.92721,2.06439
3.01705,2.90562,2.0622
3.03678,2.88891,2.06351
3.05772,2.8733,2.0657
3.06937,2.84898,2.06176
3.08083,2.82462,2.05782
3.09344,2.80143,2.05476
3.10924,2.7812,2.05388
3.13499,2.76981,2.05958
3.16005,2.75763,2.06483
3.17215,2.73407,2.06176
3.19639,2.72097,2.06658
4.04231,3.3999,2.5945
4.05619,3.36928,2.59012
4.06984,3.33862,2.58574
4.08745,3.31132,2.58399
4.1119,3.28955,2.58662
4.13201,3.26426,2.58662
3.38113,2.63657,2.11035
3.37944,2.60205,2.09941
3.38319,2.572,2.09197
3.38669,2.54201,2.08453
3.39645,2.51689,2.08102
3.40385,2.49015,2.07621
3.41907,2.46922,2.07621
3.44691,2.42552,2.0749
3.46172,2.40433,2.0749
3.46307,2.37388,2.06702
3.48353,2.35662,2.07052
3.50689,2.3412,2.07577
3.51894,2.31815,2.07446
3.52857,2.29357,2.07183
3.54258,2.27188,2.07183
3.55949,2.25203,2.07358
3.57019,2.22824,2.07183
3.58533,2.20723,2.07271
3.60418,2.18846,2.07577
3.61292,2.16353,2.07315
3.62767,2.14224,2.07402
3.64463,2.1222,2.07621
3.66148,2.10204,2.0784
3.66962,2.07688,2.07577
3.67915,2.05257,2.07402
3.70034,2.03473,2.07884
3.71275,2.01198,2.07884
3.71472,1.98365,2.07315
3.72603,1.9604,2.07271
3.74437,1.94081,2.07621
3.75221,1.91576,2.07402
3.76389,1.8927,2.07402
3.7706,1.86717,2.07139
3.7836,1.84479,2.07227
3.7989,1.82348,2.07446
3.81164,1.80091,2.07533
3.82344,1.77787,2.07577
3.83427,1.75437,2.07577
3.84497,1.73082,2.07577
3.85469,1.70683,2.07533
3.86344,1.68242,2.07446
3.87039,1.65727,2.07271
3.88463,1.63523,2.0749
3.89957,1.61344,2.07752
3.91939,1.59355,2.08278
3.92492,1.5678,2.08059
3.92861,1.54138,2.07752
3.93967,1.5179,2.0784
3.95227,1.49497,2.08015
3.95126,1.46693,2.0749
3.96019,1.44265,2.0749
3.97235,1.41954,2.07665
3.98523,1.39663,2.07884
3.99627,1.37303,2.08015
4.00206,1.34762,2.07884
4.0077,1.32219,2.07752
4.01659,1.29785,2.07796
4.02105,1.2721,2.07621
4.02706,1.24687,2.07533
4.03808,1.22318,2.07709
4.04895,1.1994,2.07884
4.05365,1.17378,2.07752
4.05818,1.14815,2.07621
4.06515,1.12323,2.07621
4.07457,1.09897,2.07752
4.08471,1.07487,2.07927
4.08775,1.04889,2.07752
4.09149,1.02313,2.07621
4.09682,0.997792,2.07577
4.10461,0.973052,2.07665
4.11226,0.948254,2.07752
4.11098,0.921424,2.07402
4.12007,0.89695,2.07577
4.13077,0.872773,2.0784
4.13165,0.846504,2.07621
4.13588,0.820961,2.07577
4.14172,0.795739,2.07621
4.14918,0.770806,2.07752
4.14587,0.743896,2.07358
4.15301,0.718906,2.0749
4.16089,0.694005,2.07665
4.16685,0.668748,2.07752
4.16199,0.641789,2.07315
4.16051,0.615445,2.07052
4.17489,0.591429,2.07577
4.17844,0.565801,2.07577
4.17737,0.539572,2.07358
4.19399,0.515588,2.08015
4.19975,0.49016,2.08146
4.19464,0.463485,2.07752
4.19741,0.437738,2.07752
4.19822,0.411798,2.07665
4.19799,0.385781,2.07533
4.19221,0.359317,2.07139
4.19882,0.333948,2.07358
4.21424,0.309178,2.08015
4.20964,0.256938,2.07621
4.21921,0.231555,2.08015
4.21876,0.205573,2.07927
4.20198,0.178901,2.07052
4.20749,0.153282,2.07271
4.21824,0.127772,2.07752
4.21445,0.101774,2.07533
4.2078,0.0757763,2.07183
4.20998,0.0499794,2.07271
4.2201,0.0242128,2.07752
4.21657,-0.00168378,2.07577
4.21199,-0.0275311,2.07358
4.21713,-0.053438,2.07621
4.20684,-0.0791364,2.07139
4.19998,-0.104797,2.06833
4.20735,-0.130809,2.07227
4.20736,-0.156655,2.07271
4.21081,-0.182658,2.0749
4.21051,-0.208536,2.07533
4.20736,-0.234269,2.07446
4.20405,-0.259971,2.07358
4.20237,-0.285762,2.07358
4.20054,-0.311541,2.07358
4.20482,-0.337808,2.07665
4.19819,-0.363218,2.07446
4.19947,-0.3893,2.07621
4.20058,-0.41541,2.07796
4.1899,-0.440339,2.07402
4.18801,-0.466138,2.07446
4.18329,-0.491618,2.07358
4.18376,-0.517715,2.07533
4.18497,-0.543952,2.07752
4.18511,-0.570102,2.07927
4.17798,-0.595267,2.07752
4.1698,-0.620234,2.07533
4.16236,-0.64526,2.07358
4.16365,-0.671642,2.07621
4.16566,-0.698211,2.07927
4.16041,-0.723605,2.07884
4.15589,-0.749119,2.07884
4.14856,-0.774113,2.07752
4.14992,-0.80074,2.08059
4.14404,-0.826013,2.08015
3.19758,-0.679204,1.61439
3.1714,-0.734918,1.60782
5.15457,-1.22523,2.60238
5.14259,-1.25577,2.60019
5.13653,-1.28774,2.60106
5.12941,-1.31946,2.6015
5.13078,-1.35342,2.60632
5.1163,-1.38324,2.60325
3.66125,-1.0152,1.87266
3.59958,-1.02199,1.84464
3.60101,-1.0463,1.84858
3.59625,-1.06889,1.84946
3.58618,-1.08989,1.84771
5.06707,-1.57221,2.60588
5.05476,-1.60246,2.60457
5.04055,-1.63206,2.60238
5.03044,-1.66296,2.60238
5.01674,-1.69265,2.60063
5.06408,-1.74326,2.63039
0,0,0
0,0,0
0,0,0
0,0,0
0,0,0
0,0,0
0,0,0
0,0,0
0,0,0
0,0,0
0,0,0
0,0,0
0,0,0
0,0,0
0,0,0
0,0,0
0,0,0
0,0,0
0,0,0
0,0,0
0,0,0
0,0,0
0,0,0
0,0,0
0,0,0
0,0,0
0,0,0
0,0,0
0,0,0
0,0,0
0,0,0
0,0,0
0,0,0
0,0,0
0,0,0
0,0,0
0,0,0
0,0,0
0,0,0
0,0,0
0,0,0
0,0,0
0,0,0
0,0,0
0,0,0
0,0,0
0,0,0
0,0,0
0,0,0
0,0,0
0,0,0
0,0,0
0,0,0
0,0,0
-4.30527,0.718127,2.07169
-4.29989,0.744375,2.07126
-4.29524,0.770744,2.07126
-4.28598,0.796254,2.06914
-4.26857,0.820132,2.06319
-4.26612,0.84684,2.06447
-4.27149,0.875192,2.06956
-4.27046,0.902325,2.07169
-4.26396,0.928318,2.07126
-4.25907,0.954663,2.07169
-4.25313,0.980778,2.07169
-4.24791,1.00707,2.07211
-4.24165,1.03311,2.07211
-4.23348,1.05868,2.07126
-4.22866,1.08509,2.07211
-4.21667,1.10962,2.06956
-4.19755,1.13216,2.06362
-4.30131,1.18863,2.11757
-4.49763,1.30274,2.2208
-4.51385,1.33753,2.2327
-4.52201,1.37021,2.24077
-4.54378,1.40733,2.25564
-4.17871,1.32204,2.08018
-4.15416,1.34235,2.07211
-4.14585,1.36781,2.07211
-4.13737,1.39322,2.07211
-4.12875,1.41858,2.07211
-4.11997,1.44389,2.07211
-4.11103,1.46914,2.07211
-4.10194,1.49434,2.07211
-4.09269,1.51948,2.07211
-4.08329,1.54457,2.07211
-4.07374,1.56959,2.07211
-4.06403,1.59456,2.07211
-4.05417,1.61946,2.07211
-4.04332,1.64397,2.07169
-4.02897,1.66701,2.06956
-4.01033,1.68818,2.06532
-4.00239,1.71383,2.06659
-3.98931,1.73727,2.06532
-3.98188,1.76318,2.06701
-3.96604,1.78534,2.06447
-3.969,1.81606,2.07169
-3.95778,1.84038,2.07169
-3.92023,1.85223,2.05809
-3.90798,1.87586,2.05767
-3.90778,1.90537,2.06362
-3.90818,1.93535,2.06999
-3.88896,1.95562,2.06617
-3.86883,1.97532,2.06192
-3.85583,1.99861,2.06149
-3.84349,2.02223,2.06149
-3.84857,2.05517,2.07084
-3.83271,2.07702,2.06914
-3.80958,2.09482,2.06362
-3.7935,2.11639,2.06192
-3.78359,2.14141,2.06362
-3.78058,2.17045,2.06914
-3.76797,2.19407,2.06956
-3.74743,2.213,2.06574
-3.73611,2.23735,2.06701
-3.71999,2.25882,2.06574
-3.70914,2.2835,2.06744
-3.69199,2.3043,2.06574
-3.68084,2.32885,2.06744
-3.65963,2.34698,2.06362
-3.64288,2.36791,2.06234
-3.63206,2.39271,2.06447
-3.62333,2.41898,2.06786
-3.60242,2.4371,2.06447
-3.58367,2.4566,2.06234
-3.56779,2.47802,2.06192
-3.55252,2.49987,2.06192
-3.53711,2.52162,2.06192
-3.52157,2.54327,2.06192
-3.5059,2.56483,2.06192
-3.4901,2.5863,2.06192
-3.47344,2.60712,2.06149
-3.4581,2.62893,2.06192
-3.4419,2.6501,2.06192
-3.42557,2.67117,2.06192
-3.40557,2.68933,2.05979
-3.38194,2.70451,2.05554
-3.37161,2.73035,2.05937
-3.35689,2.75271,2.06064
-3.33994,2.77325,2.06064
-3.32009,2.79136,2.05894
-3.29739,2.80698,2.05554
-3.28901,2.83485,2.06107
-3.28109,2.86332,2.06701
-3.2594,2.8798,2.06447
-3.23829,2.89673,2.06234
-3.21979,2.91593,2.06192
-3.20184,2.93563,2.06192
-3.18376,2.95523,2.06192
-3.16557,2.9747,2.06192
-3.14726,2.99407,2.06192
-3.12883,3.01333,2.06192
-3.11028,3.03247,2.06192
-3.09161,3.0515,2.06192
-3.07283,3.07041,2.06192
-3.05394,3.08921,2.06192
-3.03492,3.10789,2.06192
-3.0158,3.12645,2.06192
-2.99968,3.14818,2.06404
-2.98154,3.16784,2.06489
-2.95158,3.17479,2.05767
-2.93449,3.19551,2.05937
-2.91787,3.21682,2.06149
-2.89868,3.23533,2.06192
-2.87877,3.25306,2.06192
-2.85876,3.27066,2.06192
-2.83568,3.28471,2.05979
-2.80902,3.29446,2.05512
-2.78759,3.31025,2.05427
-2.77705,3.33914,2.06149
-2.76569,3.36732,2.06829
-2.74953,3.38985,2.07169
-2.74281,3.42434,2.08231
-2.69595,3.40842,2.06277
-2.685,3.43775,2.07041
-2.66607,3.45703,2.07211
-2.64261,3.47044,2.07041
-2.59248,3.44821,2.0479
-2.5772,3.47205,2.05257
-2.55691,3.48926,2.05342
-2.53016,3.49754,2.04917
-2.51075,3.51595,2.05087
-2.50319,3.55128,2.06234
-2.49013,3.57922,2.06956
-2.47733,3.60787,2.07721
-2.45464,3.62225,2.07679
-2.41629,3.61315,2.06319
-2.38312,3.61127,2.05385
-2.36191,3.62735,2.05469
-2.34693,3.6532,2.06107
-2.30996,3.64458,2.04832
-2.28611,3.65638,2.04705
-2.26269,3.6688,2.0462
-2.24436,3.68958,2.05002
-2.08103,4.13089,2.19404
-1.93037,3.89044,2.06149
-1.89694,3.88268,2.0513
-1.88248,3.91384,2.06149
-1.84954,3.90648,2.05172
-1.83469,3.93746,2.06192
-1.81163,3.95112,2.06319
-1.79032,3.96876,2.06659
-1.76301,3.97305,2.06319
-1.73643,3.97881,2.06064
-1.71162,3.98856,2.06022
-1.68817,4.00149,2.06149
-2.05601,5.04847,2.58149
-2.03439,5.08453,2.59338
-2.00546,5.10282,2.59635
-1.97184,5.10912,2.59338
-1.93885,5.11688,2.59126
-1.89168,5.08625,2.57002
-1.50435,4.11949,2.08146
-1.47874,4.12779,2.08103
-1.45129,4.1308,2.07806
-1.42151,4.12679,2.07169
-1.39183,4.12256,2.06532
-1.36396,4.12328,2.06149
-1.33863,4.13158,2.06149
-1.31762,4.15352,2.06829
-1.2897,4.15375,2.06447
-1.26262,4.15638,2.06192
-1.23709,4.16405,2.06192
-1.21126,4.17069,2.06149
-1.19008,4.19373,2.06914
-1.16144,4.19048,2.06404
-1.13453,4.19316,2.06192
-1.10878,4.20004,2.06192
-1.08298,4.20676,2.06192
-1.05715,4.21333,2.06192
-1.03235,4.22413,2.06404
-1.00787,4.23656,2.06701
-0.980028,4.23472,2.06319
-0.953631,4.23889,2.06234
-0.92818,4.24731,2.06362
-0.904158,4.26267,2.06829
-0.879437,4.27523,2.07169
-0.852484,4.277,2.06999
-0.829295,4.29815,2.07764
-0.793825,4.2542,2.05427
-0.773934,4.29375,2.07084
-0.747573,4.29841,2.07084
-0.72163,4.3056,2.07211
-0.694482,4.30548,2.06999
-0.666261,4.29803,2.06447
-0.639876,4.30203,2.06447
-0.614861,4.31574,2.06914
-0.589096,4.32481,2.07169
-0.561854,4.32296,2.06914
-0.534437,4.31914,2.06574
-0.508867,4.33043,2.06956
-0.482783,4.33797,2.07169
-0.45625,4.34175,2.07211
-0.429336,4.34176,2.07084
-0.403018,4.34792,2.07254
-0.376255,4.34941,2.07211
-0.349489,4.35073,2.07169
-0.322457,4.34828,2.06956
-0.294924,4.33753,2.06362
-0.268139,4.33655,2.06234
-0.241772,4.34264,2.06447
-0.215691,4.35579,2.06999
-0.189152,4.36156,2.07211
-0.162223,4.35811,2.06999
-0.135289,4.35269,2.06701
-0.108708,4.35887,2.06956
-0.0820411,4.36398,2.07169
-0.0552206,4.36078,2.06999
-0.0284227,4.35379,2.06659
-0.0017066,4.3557,2.06744
0.0249764,4.34929,2.06447
0.051651,4.34815,2.06404
0.0785196,4.35771,2.06871
0.105416,4.36348,2.07169
0.131479,4.34013,2.06107
0.156818,4.30486,2.04492
0.211839,4.34692,2.06574
0.348281,4.37808,2.08443
0.374981,4.37405,2.08358
0.401477,4.36806,2.08188
0.473881,4.28886,2.04832
0.499447,4.27958,2.04535
0.526699,4.28452,2.04917
0.554031,4.28928,2.053
0.581441,4.29388,2.05682
0.606881,4.28396,2.05385
0.629954,4.25866,2.04365
0.658573,4.27082,2.0513
0.865699,5.38648,2.58361
0.899632,5.38642,2.58616
0.931734,5.37545,2.58361
0.964699,5.36963,2.58361
0.99979,5.37518,2.58913
1.03361,5.37339,2.59126
1.0593,5.33055,2.57384
0.876105,4.27592,2.07169
0.903078,4.274,2.07339
0.925415,4.2507,2.06489
0.954464,4.25818,2.07126
0.980573,4.25225,2.07126
1.00224,4.22766,2.06234
1.02816,4.22143,2.06234
1.05493,4.21855,2.06404
1.08215,4.21726,2.06659
1.10662,4.20529,2.06404
1.13098,4.19318,2.06149
1.15693,4.18703,2.06192
1.1826,4.17985,2.06192
1.20974,4.17773,2.06447
1.23716,4.17631,2.06744
1.26197,4.16604,2.06617
1.28858,4.16167,2.06786
1.31135,4.14506,2.06362
1.33592,4.13435,2.06234
1.36127,4.12608,2.06234
1.38801,4.12194,2.06447
1.41711,4.12447,2.06999
1.44389,4.11997,2.07211
1.46762,4.10677,2.06999
1.48875,4.08663,2.06447
1.51221,4.07318,2.06234
1.53718,4.06382,2.06234
1.56339,4.05769,2.06404
1.59058,4.05392,2.06701
1.6134,4.03904,2.06447
1.63611,4.02404,2.06192
1.66215,4.01727,2.06362
1.69205,4.0195,2.06999
1.71668,4.00904,2.06999
1.73763,3.99014,2.06574
1.76355,3.98271,2.06744
1.78646,3.96852,2.06574
1.81304,3.96242,2.06829
1.83082,3.93727,2.06107
1.86851,3.95459,2.07594
1.89431,3.94632,2.07764
1.90179,3.90046,2.05979
1.93736,3.91223,2.07211
1.96051,3.89866,2.07126
1.98275,3.88333,2.06956
2.00069,3.85984,2.06362
2.02519,3.8491,2.06447
2.05389,3.84618,2.06956
2.07961,3.83748,2.07169
2.10356,3.82544,2.07211
2.12699,3.81246,2.07211
2.15034,3.79934,2.07211
2.17316,3.78529,2.07169
2.19635,3.77188,2.07169
2.21715,3.75444,2.06956
2.23362,3.7299,2.06362
2.25411,3.71226,2.06149
2.27684,3.69835,2.06149
2.31102,3.70273,2.07169
2.33369,3.68848,2.07169
2.36313,3.68476,2.07764
2.38817,3.67398,2.07976
2.42114,3.67512,2.08868
2.45221,3.67299,2.0959
2.47317,3.65562,2.09463
2.55145,3.48765,2.0513
2.58576,3.48937,2.06149
2.62018,3.4908,2.07169
2.64155,3.47466,2.07169
2.66006,3.4548,2.06956
2.6734,3.42843,2.06362
2.69158,3.40841,2.06149
2.71244,3.39183,2.06149
2.73149,3.37302,2.06022
2.76823,3.37578,2.07211
2.80221,3.37473,2.08188
2.81294,3.3457,2.07466
2.83695,3.33251,2.07721
2.85379,3.31093,2.07466
2.85205,3.1494,2.01731
3.01836,3.13404,2.06532
3.04196,3.11999,2.06829
3.06678,3.10706,2.07211
3.06657,3.06899,2.05937
3.08083,3.04567,2.05639
3.10075,3.02797,2.05724
3.11275,3.00261,2.053
3.12849,2.98096,2.0513
3.14541,2.96047,2.05045
3.16816,2.94542,2.05342
3.19485,2.93388,2.05894
3.21614,2.91726,2.06107
3.22589,2.89023,2.05597
4.12216,3.5571,2.57851
4.14598,3.5335,2.57979
4.16758,3.508,2.57979
4.10752,3.41472,2.53008
3.42403,2.81217,2.1027
3.437,2.78769,2.10015
3.44697,2.7609,2.0959
3.42831,2.71165,2.07466
3.4506,2.69502,2.07806
3.47209,2.67766,2.08103
3.48774,2.65576,2.08061
3.50541,2.63539,2.08146
3.52152,2.61384,2.08146
3.51849,2.57829,2.07041
3.53645,2.55824,2.07169
3.55355,2.53754,2.07254
3.56831,2.51517,2.07211
3.58368,2.49323,2.07211
3.59891,2.47119,2.07211
3.61401,2.44906,2.07211
3.62896,2.42684,2.07211
3.64379,2.40453,2.07211
3.65923,2.38262,2.07254
3.67759,2.36256,2.07466
3.69738,2.34334,2.07764
3.70631,2.31726,2.07466
3.72046,2.29447,2.07466
3.74453,2.2777,2.08018
3.75843,2.25469,2.08018
3.76596,2.2279,2.07679
3.78034,2.20521,2.07721
3.78752,2.17837,2.07381
3.79687,2.15286,2.07169
3.81001,2.12952,2.07169
3.82301,2.1061,2.07169
3.83984,2.08476,2.07381
3.86374,2.06713,2.07976
3.88036,2.04549,2.08188
3.89283,2.02164,2.08188
3.90113,1.99566,2.07976
3.90602,1.96802,2.07594
3.92452,1.94723,2.07934
3.93639,1.92312,2.07934
3.94159,1.89579,2.07594
3.96051,1.87505,2.07976
3.9703,1.84995,2.07891
3.97582,1.82292,2.07594
3.99436,1.80183,2.07976
4.00865,1.77876,2.08146
4.02115,1.75485,2.08231
4.03017,1.72943,2.08146
4.03988,1.70432,2.08103
4.04607,1.67777,2.07891
4.04707,1.64916,2.07424
4.05711,1.6243,2.07424
4.07796,1.60367,2.07976
4.09025,1.57959,2.08103
4.09987,1.55447,2.08103
4.10678,1.52834,2.07976
4.10843,1.50032,2.07594
4.12352,1.47722,2.07891
4.13935,1.45428,2.08231
4.14391,1.42738,2.08018
4.14573,1.39962,2.07679
4.16025,1.37614,2.07976
4.17293,1.35198,2.08188
4.18114,1.32635,2.08188
4.1892,1.30067,2.08188
4.19624,1.27468,2.08146
4.20311,1.24865,2.08103
4.2107,1.22284,2.08103
4.21812,1.19698,2.08103
4.22626,1.17131,2.08146
4.23424,1.14559,2.08188
4.24206,1.11982,2.08231
4.24623,1.0931,2.08103
4.25461,1.06746,2.08188
4.2558,1.04005,2.07934
4.26739,1.01517,2.08188
4.29383,0.993641,2.09166
4.30161,0.967672,2.0925
4.30039,0.939721,2.08911
4.2919,0.910326,2.08231
4.28322,0.88107,2.07551
4.30186,0.857413,2.08188
4.30793,0.831172,2.08231
4.31206,0.804558,2.08188
4.31246,0.777286,2.07976
4.30912,0.749423,2.07594
4.32167,0.724307,2.07976
4.32425,0.69749,2.07891
4.32218,0.669979,2.07594
4.33069,0.644107,2.07806
4.33187,0.617143,2.07679
4.34186,0.5914,2.07976
4.34989,0.565326,2.08188
4.35328,0.538625,2.08188
4.3565,0.511904,2.08188
4.35956,0.485163,2.08188
4.36246,0.458404,2.08188
4.36609,0.431716,2.08231
4.36775,0.404836,2.08188
4.36565,0.377643,2.07976
4.35525,0.349847,2.07381
4.3537,0.322853,2.07211
4.4396,0.301756,2.11162
4.88228,0.271246,2.31809
4.36174,0.13556,2.07126
4.36249,0.108795,2.07126
4.36217,0.082009,2.07084
4.36259,0.0552417,2.07084
4.36375,0.0284772,2.07126
4.36475,0.00170063,2.07169
4.36468,-0.025081,2.07169
4.36444,-0.0518617,2.07169
4.36766,-0.0787095,2.07339
4.37524,-0.105713,2.07721
4.37089,-0.132443,2.07551
4.37814,-0.159565,2.07934
4.38069,-0.186584,2.08103
4.38037,-0.213505,2.08146
4.37536,-0.240176,2.07976
4.36387,-0.266401,2.07509
4.36125,-0.293111,2.07466
4.3693,-0.320604,2.07934
4.37086,-0.347699,2.08103
4.36503,-0.374198,2.07934
4.35094,-0.399885,2.07381
4.3439,-0.426128,2.07169
4.3412,-0.452773,2.07169
4.33834,-0.479402,2.07169
4.33622,-0.506118,2.07211
4.33662,-0.533161,2.07381
4.34584,-0.561397,2.07976
4.34769,-0.588787,2.08231
4.3431,-0.615324,2.08188
4.33387,-0.641161,2.07934
4.31823,-0.665935,2.07381
4.31496,-0.692563,2.07424
4.32223,-0.720975,2.07976
4.31683,-0.747327,2.07934
4.30504,-0.772514,2.07594
4.30645,-0.800078,2.07891
4.28724,-0.823739,2.07211
4.27766,-0.849144,2.06999
4.32734,-0.886699,2.09633
3.75959,-1.03834,1.85375
3.74009,-1.05768,1.84738
3.71701,-1.0758,1.83931
3.70427,-1.09678,1.83633
0,0,0
0,0,0
0,0,0
0,0,0
0,0,0
0,0,0
0,0,0
0,0,0
0,0,0
0,0,0
0,0,0
0,0,0
0,0,0
0,0,0
0,0,0
0,0,0
0,0,0
0,0,0
0,0,0
0,0,0
0,0,0
0,0,0
0,0,0
0,0,0
0,0,0
0,0,0
0,0,0
0.347347,-0.641143,0.365565
0,0,0
0.324304,-0.645005,0.362166
0.309765,-0.724593,0.393179
0,0,0
0,0,0
0,0,0
0,0,0
0,0,0
0,0,0
0,0,0
0,0,0
0,0,0
0,0,0
0,0,0
0,0,0
0,0,0
0,0,0
0,0,0
0,0,0
0,0,0
0,0,0
0,0,0
0,0,0
0,0,0
0,0,0
0,0,0
0,0,0
0,0,0
0,0,0
0,0,0
0,0,0
0,0,0
0,0,0
0,0,0
0,0,0
0,0,0
0,0,0
-4.733,-0.64426,2.26499
-4.76021,-0.618216,2.27603
-4.68199,-0.173938,2.22208
-4.6712,-0.144853,2.21656
-4.66748,-0.11608,2.21443
-4.6509,-0.0871339,2.20636
-4.65135,-0.0585949,2.20636
-4.66339,-0.0301181,2.21188
-4.66802,-0.00150049,2.21401
-4.3608,0.185716,2.07169
-4.35957,0.21247,2.07169
-4.35909,0.239266,2.07211
-4.35754,0.266008,2.07211
-4.35402,0.292617,2.07126
-4.35214,0.319328,2.07126
-4.3501,0.346026,2.07126
-4.3488,0.372789,2.07169
-4.34733,0.39955,2.07211
-4.343,0.426038,2.07126
-4.3394,0.452584,2.07084
-4.33924,0.479502,2.07211
-4.33532,0.506013,2.07169
-4.33123,0.532493,2.07126
-4.32699,0.558942,2.07084
-4.32437,0.585604,2.07126
-4.3216,0.612254,2.07169
-4.31686,0.638626,2.07126
-4.31376,0.665241,2.07169
-4.3087,0.691553,2.07126
-4.48263,0.271696,2.04953
-4.49088,0.299868,2.05406
-4.49714,0.328018,2.05776
-4.49413,0.355533,2.05735
-4.49368,0.383258,2.05817
-4.48671,0.410406,2.05611
-4.48592,0.438106,2.05693
-4.48315,0.465623,2.05693
-4.47296,0.492322,2.05364
-4.47438,0.520286,2.0557
-4.47563,0.548287,2.05776
-4.46946,0.575388,2.05652
-4.46404,0.602557,2.0557
-4.46026,0.629936,2.0557
-4.45451,0.657025,2.05488
-4.4531,0.684762,2.05611
-4.45421,0.712939,2.05858
-4.45155,0.740556,2.0594
-4.44423,0.76739,2.05817
-4.43316,0.793518,2.05529
-4.43089,0.821204,2.05652
-4.42577,0.848376,2.05652
-4.42048,0.875516,2.05652
-4.42217,0.904087,2.05981
-4.42011,0.931957,2.06146
-4.40896,0.957898,2.05899
-4.40389,0.985132,2.0594
-4.39599,1.01173,2.05858
-4.38437,1.03742,2.05611
-4.37527,1.06365,2.05488
-4.37131,1.09114,2.05611
-4.36807,1.11885,2.05776
-4.35407,1.14378,2.05447
-4.36545,1.17545,2.0631
-4.2931,1.32725,2.05077
-4.28575,1.35384,2.05118
-4.2895,1.38404,2.05693
-4.28093,1.41033,2.05693
-4.26529,1.43425,2.05364
-4.25554,1.46009,2.05323
-4.24306,1.48497,2.05159
-4.23645,1.5119,2.05282
-4.23651,1.5413,2.05735
-4.22527,1.56663,2.05652
-4.21387,1.59188,2.0557
-4.20487,1.61803,2.05611
-4.19402,1.64347,2.0557
-4.18131,1.66816,2.05447
-4.16593,1.69172,2.052
-4.15295,1.71621,2.05077
-4.14402,1.74237,2.05159
-4.1366,1.76919,2.05323
-4.12734,1.79527,2.05406
-4.12208,1.82315,2.05693
-4.10832,1.84728,2.0557
-4.09359,1.87094,2.05406
-4.08452,1.89717,2.05529
-4.06456,1.91831,2.05118
-4.05682,1.94518,2.05323
-4.0489,1.97203,2.05529
-4.03264,1.99482,2.05323
-4.01218,2.01543,2.04912
-3.99812,2.03918,2.0483
-3.9831,2.06242,2.04707
-3.97037,2.08682,2.04707
-3.96232,2.11372,2.04953
-3.95008,2.13842,2.04994
-3.94647,2.16789,2.05488
-3.92752,2.18896,2.052
-3.89259,2.20089,2.0409
-3.89166,2.232,2.04748
-3.88656,2.26088,2.052
-3.87104,2.28376,2.05118
-3.85148,2.30419,2.0483
-3.84195,2.33061,2.05077
-3.81826,2.34841,2.04583
-3.81383,2.37807,2.05118
-3.78761,2.39411,2.04501
-3.77669,2.41977,2.04707
-3.76865,2.44737,2.05077
-3.75128,2.46894,2.04953
-3.73985,2.49444,2.05159
-3.7207,2.51479,2.04953
-3.69918,2.53345,2.04624
-3.68507,2.55714,2.04707
-3.67527,2.5839,2.05035
-3.65118,2.60058,2.04583
-3.62703,2.61707,2.04131
-3.61016,2.63873,2.0409
-3.59757,2.66355,2.04295
-3.5797,2.68448,2.04213
-3.56461,2.7075,2.04295
-3.54432,2.72654,2.0409
-3.52465,2.74599,2.03925
-3.50415,2.76474,2.0372
-3.4914,2.78961,2.03966
-3.47634,2.8127,2.0409
-3.46536,2.83918,2.0446
-3.45138,2.8633,2.04665
-3.43375,2.88442,2.04665
-3.41321,2.90307,2.04501
-3.39671,2.92515,2.04583
-3.37458,2.94234,2.04336
-3.35714,2.9636,2.04378
-3.33482,2.98049,2.04131
-3.32052,3.00457,2.04378
-3.30202,3.02489,2.04378
-3.28073,3.04261,2.04213
-3.26532,3.0658,2.04419
-3.24909,3.0883,2.04583
-3.23139,3.10944,2.04665
-3.20507,3.12221,2.04213
-3.18261,3.13861,2.04007
-3.16458,3.15937,2.0409
-3.14962,3.18327,2.04378
-3.13003,3.20253,2.04378
-3.10652,3.21774,2.04131
-3.08735,3.2374,2.04172
-3.07243,3.26159,2.04501
-3.05918,3.28773,2.04953
-3.03895,3.30644,2.04953
-3.01555,3.32165,2.04748
-2.99572,3.34077,2.04789
-2.97093,3.35431,2.04501
-2.9449,3.3663,2.04131
-2.92538,3.38568,2.04213
-2.90987,3.40981,2.04583
-2.88478,3.42272,2.04295
-2.86256,3.43895,2.04213
-2.84488,3.46068,2.0446
-2.82646,3.48161,2.04665
-2.80903,3.50387,2.04953
-2.7954,3.53105,2.05529
-2.76919,3.54239,2.052
-2.74518,3.55642,2.05035
-2.73435,3.5877,2.05858
-2.69695,3.58401,2.04707
-2.66295,3.58439,2.03802
-2.65815,3.62419,2.05118
-2.62838,3.63009,2.04542
-2.58963,3.62316,2.03267
-2.57996,3.65686,2.04254
-2.55956,3.67561,2.04419
-2.54057,3.69651,2.04707
-2.51017,3.70071,2.0409
-2.48437,3.7115,2.03843
-2.46758,3.7358,2.04336
-2.46799,3.78677,2.06269
-2.44323,3.79954,2.06146
-2.39937,3.78213,2.04419
-2.36742,3.78287,2.03679
-2.34369,3.79655,2.03637
-2.32129,3.81241,2.0372
-2.2927,3.81799,2.03267
-2.26737,3.82884,2.03103
-2.2443,3.84347,2.03144
-1.91523,4.0408,2.0409
-1.89425,4.06074,2.04501
-1.87462,4.08389,2.05077
-1.84503,4.08534,2.04583
-1.82658,4.11158,2.05323
-1.81445,4.15279,2.06804
-1.7803,4.14374,2.05817
-1.75059,4.14451,2.05323
-1.72583,4.15686,2.05406
-1.69375,4.15133,2.04624
-1.67604,4.18111,2.0557
-1.64635,4.18113,2.05077
-1.61771,4.1835,2.04707
-1.59201,4.19335,2.04707
-1.56466,4.19877,2.04501
-1.54043,4.21257,2.04707
-1.51425,4.22108,2.04665
-1.48862,4.23116,2.04707
-1.46441,4.24538,2.04953
-1.43921,4.25688,2.05077
-1.41306,4.26563,2.05077
-1.38602,4.27162,2.04953
-1.35868,4.27657,2.04789
-1.33323,4.28743,2.04912
-1.30742,4.29728,2.04994
-1.28077,4.30434,2.04953
-1.25256,4.30599,2.04665
-1.22636,4.31448,2.04707
-1.20303,4.33334,2.05241
-1.17285,4.32744,2.04624
-1.14837,4.34249,2.04994
-1.12329,4.35563,2.05282
-1.0961,4.36067,2.052
-1.06976,4.36909,2.05282
-1.04187,4.37114,2.05077
-1.01401,4.37301,2.04871
-0.989756,4.39071,2.05406
-0.965132,4.40738,2.05899
-0.937692,4.41144,2.05817
-0.908586,4.40729,2.05364
-0.880635,4.40831,2.05159
-0.852706,4.40916,2.04953
-0.824297,4.40714,2.04624
-0.800475,4.43005,2.05447
-0.77359,4.43668,2.05529
-0.746202,4.44044,2.05488
-0.718942,4.44494,2.05488
-0.691655,4.44926,2.05488
-0.664073,4.45162,2.05406
-0.636618,4.45471,2.05364
-0.610134,4.46485,2.05652
-0.582726,4.46851,2.05652
-0.554737,4.46748,2.05447
-0.526889,4.46718,2.05282
-0.49957,4.47124,2.05323
-0.472125,4.47422,2.05323
-0.444933,4.47975,2.05447
-0.416343,4.4706,2.04912
-0.388904,4.47307,2.04912
-0.361742,4.479,2.05077
-0.33459,4.48568,2.05282
-0.306936,4.48583,2.052
-0.279631,4.49127,2.05364
-0.252068,4.4929,2.05364
-0.224225,4.4889,2.05118
-0.196717,4.49111,2.05159
-0.169326,4.49678,2.05364
-0.141731,4.49774,2.05364
-0.114017,4.49396,2.05159
-0.0864057,4.49276,2.05077
-0.058837,4.4932,2.05077
-0.0312542,4.49166,2.04994
-0.00369411,4.49359,2.05077
0.0238885,4.49535,2.05159
0.0515141,4.49876,2.05323
0.0790187,4.49289,2.05077
0.106387,4.48412,2.04707
0.134148,4.49159,2.05077
0.161307,4.47975,2.04583
0.190263,4.51328,2.06146
0.246133,4.51971,2.06557
0.276912,4.56815,2.08818
0.518208,5.6604,2.58779
0.549728,5.62445,2.57299
0.581677,5.59649,2.56188
0.49002,4.45212,2.04419
0.516273,4.43997,2.04007
0.542394,4.42767,2.03596
0.568968,4.41974,2.03391
0.596688,4.42068,2.03596
0.622907,4.41062,2.03308
0.655559,4.44459,2.05035
0.861277,5.59815,2.57874
0.895322,5.59096,2.57792
0.929161,5.58266,2.57669
0.961377,5.56518,2.57134
0.992126,5.54033,2.56271
1.02677,5.53773,2.56435
1.06279,5.54206,2.56928
0.874984,4.4178,2.05529
0.908477,4.4436,2.06968
0.932711,4.42367,2.0631
0.962163,4.42856,2.06804
0.98553,4.40567,2.06022
1.01009,4.38888,2.05529
1.03595,4.37816,2.05323
1.06085,4.36376,2.04953
1.08893,4.36247,2.052
1.11477,4.35217,2.05035
1.13983,4.33908,2.04748
1.16691,4.33377,2.0483
1.19348,4.32652,2.0483
1.22149,4.32438,2.05077
1.24648,4.31155,2.0483
1.27369,4.30645,2.04953
1.29983,4.29768,2.04912
1.32483,4.28527,2.04707
1.35247,4.2814,2.04912
1.37843,4.27216,2.04871
1.40234,4.25669,2.04542
1.42785,4.24628,2.0446
1.45832,4.25037,2.05077
1.48527,4.24392,2.052
1.51221,4.2373,2.05323
1.53568,4.22109,2.04994
1.5587,4.2039,2.04624
1.58414,4.19341,2.04583
1.61148,4.18786,2.04789
1.63548,4.17365,2.04583
1.66106,4.16354,2.04583
1.68829,4.15749,2.04789
1.71238,4.14368,2.04624
1.73741,4.13226,2.04583
1.76453,4.12571,2.04789
1.78908,4.11313,2.04707
1.8154,4.10458,2.0483
1.85065,4.1158,2.0594
1.88042,4.11432,2.06434
1.89487,4.07956,2.05282
1.92259,4.07362,2.0557
1.94597,4.05846,2.05406
1.96964,4.04399,2.05282
1.99563,4.03428,2.05406
2.02034,4.02196,2.05406
2.0425,4.00461,2.05159
2.06535,3.98877,2.04994
2.08979,3.97602,2.04994
2.115,3.96473,2.05077
2.13929,3.95168,2.05077
2.16262,3.93688,2.04994
2.18762,3.92513,2.05077
2.21256,3.91322,2.05159
2.2388,3.90352,2.05364
2.26088,3.88656,2.052
2.28376,3.87104,2.05118
2.3084,3.85852,2.052
2.33393,3.8474,2.05364
2.35414,3.82758,2.05077
2.37614,3.81074,2.04953
2.40337,3.80225,2.05282
2.42715,3.7882,2.05323
2.45035,3.77324,2.05323
2.47045,3.75356,2.05077
2.49191,3.73606,2.04953
2.52245,3.73202,2.0557
2.55303,3.72775,2.06187
2.57274,3.70753,2.0594
2.58862,3.68198,2.05406
2.60693,3.66009,2.05077
2.71895,3.62563,2.06804
2.75604,3.62847,2.07914
2.77992,3.61366,2.08037
2.78915,3.58,2.07091
2.78508,3.52991,2.052
2.82547,3.53625,2.06557
2.89185,3.40002,2.0372
2.89361,3.36011,2.02404
2.90518,3.33199,2.01787
3.02058,3.29732,2.0409
3.04385,3.28206,2.04295
3.07392,3.27396,2.04953
3.07636,3.23654,2.03802
3.08668,3.20775,2.03185
3.11457,3.19724,2.0372
3.13797,3.18196,2.03966
3.16388,3.1691,2.04378
3.17938,3.14578,2.04131
3.2071,3.13449,2.04665
3.22496,3.11349,2.04583
3.2275,3.07792,2.03555
4.12115,3.88152,2.57751
4.1302,3.8425,2.56846
4.15505,3.81832,2.56928
4.17907,3.79337,2.5697
4.19752,3.7634,2.56682
3.4602,2.98971,2.08654
3.45906,2.95186,2.07503
3.44573,2.90416,2.05652
3.4789,2.89579,2.06557
3.49731,2.87496,2.06598
3.52196,2.85919,2.07009
3.53161,2.83126,2.06557
3.53391,2.79766,2.05693
3.55388,2.77817,2.05858
3.55498,2.74406,2.04953
3.57102,2.72165,2.04912
3.59713,2.70681,2.05447
3.62245,2.6912,2.0594
3.64037,2.67,2.06022
3.6552,2.64655,2.0594
3.66396,2.61877,2.05529
3.67623,2.59362,2.05323
3.70031,2.57674,2.05776
3.71755,2.55502,2.05858
3.72637,2.52755,2.05488
3.7365,2.50109,2.052
3.75558,2.48063,2.05406
3.77379,2.45953,2.0557
3.79418,2.43978,2.05858
3.81292,2.41889,2.06063
3.82924,2.39642,2.06146
3.83068,2.36474,2.05447
3.84434,2.34072,2.05406
3.86488,2.32084,2.05735
3.88768,2.30219,2.06187
3.90252,2.27875,2.06228
3.91643,2.25476,2.06228
3.92543,2.22799,2.05981
3.94381,2.20653,2.06228
3.95248,2.17965,2.05981
3.96338,2.15405,2.05858
3.98295,2.13313,2.06187
3.99435,2.1078,2.06105
4.0064,2.08283,2.06063
4.02316,2.06029,2.06269
4.03247,2.03392,2.06105
4.04569,2.00955,2.06146
4.06122,1.98629,2.0631
4.07169,1.96054,2.06228
4.08694,1.93708,2.06392
4.09875,1.91197,2.06392
4.10543,1.8845,2.06146
4.11525,1.85852,2.06063
4.12658,1.83324,2.06063
4.14026,1.80898,2.06187
4.15379,1.78462,2.0631
4.16214,1.75803,2.06187
4.17033,1.73141,2.06063
4.18003,1.70545,2.06022
4.19126,1.68011,2.06063
4.20403,1.65536,2.06187
4.20816,1.62723,2.05899
4.22403,1.60365,2.06187
4.2449,1.58183,2.06721
4.25452,1.55576,2.06721
4.25627,1.52685,2.06351
4.26212,1.4995,2.06187
4.26606,1.47154,2.0594
4.2802,1.44708,2.06187
4.2864,1.41994,2.06063
4.27422,1.38686,2.05077
4.31393,1.37054,2.06557
4.31181,1.3408,2.06063
4.31559,1.31299,2.05858
4.33318,1.28934,2.0631
4.34889,1.26502,2.0668
4.34955,1.23632,2.06351
4.35354,1.20863,2.06187
4.35736,1.18094,2.06022
4.36364,1.15395,2.05981
4.36711,1.12625,2.05817
4.36775,1.09788,2.05529
4.37883,1.07214,2.05735
4.3871,1.04567,2.05817
4.39965,1.02017,2.06105
4.41205,0.994559,2.06392
4.41629,0.967079,2.0631
4.4266,0.940908,2.06516
4.43407,0.914097,2.06598
4.44139,0.887229,2.0668
4.44585,0.859788,2.06639
4.4376,0.829984,2.06022
4.44082,0.802416,2.0594
4.45374,0.776559,2.0631
4.46651,0.750573,2.0668
4.46923,0.722863,2.06598
4.46998,0.694868,2.06434
4.47597,0.667696,2.06516
4.47005,0.638804,2.06063
4.4775,0.611857,2.06228
4.48207,0.584489,2.06269
4.48648,0.557089,2.0631
4.48438,0.528911,2.06063
4.47939,0.500478,2.05693
4.48238,0.472983,2.05693
4.48973,0.44592,2.05899
4.49329,0.418447,2.0594
4.49214,0.390555,2.05776
4.49808,0.363276,2.0594
4.50296,0.335872,2.06063
4.49402,0.307493,2.0557
4.79325,0.268806,2.18934
4.51869,0.142383,2.0631
4.50854,0.114381,2.05817
4.50916,0.0867151,2.05817
4.51417,0.0591037,2.06022
4.51809,0.0314282,2.06187
4.51455,0.00370348,2.06022
4.52087,-0.0240337,2.0631
4.51152,-0.051665,2.05899
4.51112,-0.0793462,2.05899
4.51237,-0.107068,2.05981
4.51254,-0.134781,2.06022
4.50981,-0.162401,2.0594
4.50599,-0.189953,2.05817
4.51021,-0.217864,2.06063
4.50059,-0.245085,2.05693
4.49446,-0.272418,2.05488
4.48997,-0.299807,2.05364
4.48805,-0.327351,2.05364
4.46658,-0.630831,2.05858
4.46443,-0.658492,2.0594
4.46121,-0.686012,2.05981
4.45961,-0.713806,2.06105
4.46054,-0.742055,2.06351
4.4577,-0.769722,2.06434
4.44661,-0.795933,2.06146
4.43986,-0.822869,2.06063
4.43383,-0.849924,2.06022
4.45714,-0.882791,2.07338
3.90075,-1.05014,1.84599
3.88633,-1.07187,1.84229
3.8481,-1.08677,1.82749
3.82472,-1.10554,1.81967
0,0,0
0,0,0
0,0,0
0,0,0
0,0,0
0,0,0
0,0,0
0,0,0
0,0,0
0,0,0
0,0,0
0,0,0
0,0,0
0,0,0
0,0,0
0,0,0
0,0,0
0,0,0
0,0,0
0,0,0
0,0,0
0,0,0
0,0,0
0,0,0
0,0,0
0,0,0
0,0,0
0,0,0
0,0,0
0,0,0
0,0,0
0,0,0
0,0,0
0,0,0
0,0,0
0,0,0
0,0,0
0,0,0
0,0,0
-3.46423,0.0392805,1.58653
-4.48869,0.189217,2.05035
-4.49655,0.217199,2.05447
-4.49331,0.244685,2.05364
-3.585,0.0440012,1.59047
-3.60434,0.0884794,1.59927
-3.65502,0.112151,1.62169
-4.65771,0.199824,2.06088
-4.63809,0.227507,2.05287
-4.64942,0.256665,2.05848
-4.65141,0.285412,2.06008
-4.64957,0.313947,2.06008
-4.64756,0.34247,2.06008
-4.64537,0.370981,2.06008
-4.64301,0.399477,2.06008
-4.64047,0.427959,2.06008
-4.63867,0.456514,2.06048
-4.63487,0.484872,2.06008
-4.63545,0.513705,2.06168
-4.64495,0.543626,2.06728
-4.63334,0.57111,2.06368
-4.63975,0.60082,2.06808
-4.63507,0.629155,2.06768
-4.61932,0.655912,2.06248
-4.61068,0.683572,2.06048
-4.61093,0.712549,2.06248
-4.61913,0.742861,2.06808
-4.6181,0.771793,2.06968
-4.61418,0.800271,2.07009
-4.60919,0.828568,2.07009
-4.60312,0.856666,2.06968
-4.59327,0.88403,2.06768
-4.57608,0.909877,2.06248
-4.57041,0.937938,2.06248
-4.57622,0.968427,2.06768
-4.57557,0.997658,2.07009
-4.57294,1.02652,2.07169
-4.57459,1.05641,2.07529
-4.56089,1.08277,2.07209
-4.54971,1.10965,2.07009
-4.54192,1.13732,2.06968
-4.53486,1.16517,2.06968
-5.28374,1.42672,2.41519
-4.4596,1.35244,2.06008
-4.45122,1.37977,2.06008
-4.44267,1.40706,2.06008
-4.43395,1.43429,2.06008
-4.42593,1.46176,2.06048
-4.42036,1.49006,2.06208
-4.41806,1.51954,2.06528
-4.40174,1.54419,2.06208
-4.38787,1.56963,2.06008
-4.37815,1.59652,2.06008
-4.36741,1.62304,2.05968
-4.35309,1.64818,2.05767
-4.33605,1.67223,2.05447
-4.33253,1.70148,2.05767
-4.32712,1.73007,2.06008
-4.31727,1.75693,2.06048
-4.30641,1.78339,2.06048
-4.29538,1.80978,2.06048
-4.2842,1.8361,2.06048
-4.27201,1.86199,2.06008
-4.26134,1.88854,2.06048
-4.24968,1.91465,2.06048
-4.23702,1.94031,2.06008
-4.22586,1.96666,2.06048
-4.21371,1.99255,2.06048
-4.20141,2.01836,2.06048
-4.18895,2.04411,2.06048
-4.1755,2.06936,2.06008
-4.15945,2.0933,2.05848
-4.14,2.11545,2.05527
-4.13345,2.14418,2.05848
-4.11941,2.16908,2.05807
-4.09551,2.1887,2.05287
-4.08201,2.21379,2.05287
-4.07798,2.24409,2.05767
-4.06493,2.26952,2.05807
-4.04056,2.28855,2.05287
-4.02247,2.31102,2.05087
-4.00822,2.33566,2.05087
-3.99776,2.36254,2.05287
-3.9934,2.39314,2.05807
-3.97864,2.4176,2.05807
-3.95359,2.43572,2.05287
-3.93391,2.45702,2.05047
-3.91876,2.48112,2.05047
-3.90346,2.50511,2.05047
-3.86958,2.51703,2.04086
-3.87242,2.55283,2.05047
-3.85669,2.57654,2.05047
-3.84232,2.60118,2.05127
-3.82931,2.62678,2.05287
-3.81764,2.65337,2.05527
-3.79229,2.67041,2.05047
-3.77808,2.69523,2.05167
-3.77335,2.72694,2.05807
-3.75063,2.74572,2.05487
-3.73519,2.76977,2.05567
-3.71226,2.78823,2.05247
-3.69143,2.80819,2.05047
-3.67413,2.83078,2.05047
-3.6567,2.85327,2.05047
-3.63912,2.87566,2.05047
-3.62141,2.89793,2.05047
-3.60356,2.9201,2.05047
-3.58628,2.94274,2.05087
-3.56816,2.96469,2.05087
-3.5499,2.98652,2.05087
-3.53151,3.00825,2.05087
-3.51229,3.02926,2.05047
-3.49087,3.04835,2.04887
-3.46661,3.06486,2.04566
-3.4532,3.09096,2.04887
-3.43689,3.11455,2.05047
-3.41839,3.1362,2.05087
-3.39908,3.15711,2.05087
-3.37964,3.17791,2.05087
-3.36008,3.19859,2.05087
-3.34039,3.21914,2.05087
-3.32058,3.23958,2.05087
-3.3039,3.26311,2.05287
-3.28965,3.28915,2.05647
-3.26747,3.30732,2.05527
-3.25224,3.33255,2.05848
-3.23173,3.35244,2.05848
-3.20604,3.3669,2.05527
-3.19034,3.39185,2.05848
-3.16947,3.41136,2.05848
-3.14352,3.42534,2.05527
-3.12429,3.4466,2.05647
-3.09758,3.45957,2.05287
-3.07326,3.47508,2.05087
-3.05188,3.49387,2.05087
-3.03338,3.516,2.05287
-3.0165,3.54012,2.05607
-2.99,3.55296,2.05287
-2.96522,3.56771,2.05087
-2.94618,3.58938,2.05287
-2.9316,3.61664,2.05807
-2.91222,3.63814,2.06008
-2.887,3.65235,2.05807
-2.8589,3.66277,2.05407
-2.84196,3.6875,2.05807
-2.81873,3.70414,2.05767
-2.78934,3.71257,2.05287
-2.76268,3.72447,2.05007
-2.74303,3.74579,2.05247
-2.72644,3.77146,2.05727
-2.70644,3.79259,2.05968
-2.68365,3.80987,2.06008
-2.62411,3.77436,2.03245
-2.63669,3.84252,2.06008
-2.59096,3.826,2.04286
-2.56846,3.84335,2.04366
-2.54331,3.85675,2.04246
-2.5246,3.87996,2.04646
-2.50074,3.89538,2.04646
-2.48317,3.92071,2.05167
-2.45761,3.93354,2.05047
-2.45507,3.98365,2.06848
-2.42392,3.98767,2.06288
-2.38291,3.97497,2.04887
-2.35707,3.98715,2.04767
-2.3261,3.99045,2.04206
-2.30111,4.00386,2.04166
-2.27605,4.0171,2.04126
-2.25181,4.03179,2.04166
-2.22924,4.04955,2.04366
-2.05131,4.47746,2.17578
-1.90512,4.22683,2.04967
-1.87915,4.23844,2.04967
-1.85384,4.25157,2.05047
-1.82555,4.25781,2.04807
-1.80188,4.27485,2.05087
-1.7693,4.27059,2.04366
-1.74687,4.2907,2.04807
-1.72255,4.30644,2.05047
-1.6961,4.31693,2.05047
-1.66991,4.32811,2.05087
-1.64332,4.33827,2.05087
-1.61635,4.34741,2.05047
-1.58996,4.35811,2.05087
-1.56319,4.36779,2.05087
-1.53636,4.37729,2.05087
-1.50947,4.38664,2.05087
-1.48252,4.39582,2.05087
-1.45524,4.40396,2.05047
-1.42847,4.41368,2.05087
-1.40136,4.42236,2.05087
-1.3742,4.43088,2.05087
-1.34672,4.43835,2.05047
-1.32077,4.45092,2.05247
-1.29522,4.4651,2.05527
-1.2663,4.46768,2.05287
-1.23764,4.47095,2.05087
-1.21018,4.47846,2.05087
-1.18385,4.49023,2.05287
-1.1581,4.50451,2.05607
-1.12999,4.50975,2.05527
-1.10404,4.52372,2.05848
-1.07711,4.53397,2.06008
-1.04844,4.53693,2.05848
-1.01777,4.53076,2.05287
-0.98917,4.53334,2.05127
-0.962096,4.54291,2.05287
-0.935495,4.55501,2.05567
-0.906991,4.55797,2.05447
-0.880396,4.57064,2.05767
-0.848469,4.55524,2.04847
-0.827816,4.60094,2.06648
-0.800982,4.61406,2.07009
-0.765236,4.57461,2.05047
-0.740653,4.60093,2.06008
-0.712549,4.60629,2.06048
-0.684137,4.60967,2.06008
-0.655323,4.61015,2.05848
-0.626034,4.60682,2.05527
-0.5987,4.61785,2.05848
-0.570242,4.62052,2.05807
