0.48453,0.30147,-0.01207
0.50884,0.30031,-0.017983
0.53695,0.30904,-0.013114
0.54503,0.30849,-0.014243
0.55313,0.30793,-0.015337
0.565295,0.30707,-0.0169065
0.60504,0.303035,-0.0152305
0.61786,0.30267,-0.019867
0.63374,0.30092,-0.018453
0.65961,0.30935,-0.018395
0.66709,0.308,-0.015116
0.68275,0.30593,-0.012331
0.71551,0.30285,-0.0131
0.72312,0.30162,-0.010553
0.7316,0.30102,-0.011821
0.74954,0.30043,-0.018079
0.77347,0.30733,-0.011944
0.79213,0.30691,-0.019723
0.804285,0.305375,-0.0182875
0.84261,0.304935,-0.015892
0.85072,0.303845,-0.01473
0.86187,0.30763,-0.01968
0.89381,0.30279,-0.012604
0.90224,0.3018,-0.012156
0.91098,0.30096,-0.012606
0.92069,0.30056,-0.015823
0.932653,0.30516,-0.0173767
0.94405,0.30828,-0.012935
0.95319,0.3075,-0.014134
0.96425,0.3009,-0.012249
0.99848,0.30311,-0.01761
1.0475,0.30429,-0.012927
1.0572,0.30351,-0.014538
1.07525,0.305485,-0.0181865
1.0841,0.30018,-0.013622
1.1012,0.30572,-0.018553
1.1189,0.30318,-0.016687
1.1378,0.30105,-0.01735
1.1512,0.30923,-0.018506
1.1897,0.30475,-0.019943
1.1958,0.30238,-0.012859
1.21865,0.304885,-0.0145135
1.2324,0.30869,-0.016991
1.2407,0.30696,-0.014172
1.26475,0.30368,-0.0135125
1.28525,0.301355,-0.0149415
1.3029,0.30023,-0.019888
1.3203,0.30402,-0.012894
1.3305,0.30271,-0.013144
1.3442,0.30237,-0.019352
1.3595,0.30561,-0.011141
1.3713,0.30461,-0.01376
1.3821,0.30331,-0.014611
1.3939,0.30227,-0.017101
1.4027,0.30037,-0.014447
1.4203,0.30859,-0.01506
1.4307,0.30702,-0.014825
1.4547,0.30467,-0.019205
1.46645,0.30487,-0.01469
1.4708,0.30018,-0.010839
1.4836,0.30639,-0.018421
1.5151,0.30116,-0.016622
1.5409,0.30548,-0.016576
1.5542,0.30429,-0.019828
1.5912,0.30692,-0.012875
1.6064,0.30599,-0.018241
1.6143,0.30684,-0.016201
1.6261,0.30503,-0.016628
1.6818,0.30757,-0.018534
1.7014,0.305435,-0.012046
1.7423,0.30914,-0.01983
1.75505,0.30524,-0.014708
1.77345,0.304965,-0.016122
1.7949,0.30775,-0.012216
1.8329,0.30584,-0.016443
1.8501,0.30705,-0.011934
1.8694,0.30579,-0.019443
1.879,0.30262,-0.015615
1.8838,0.30293,-0.011516
1.89215,0.3038,-0.0159735
1.9013,0.30114,-0.016557
1.9385,0.30696,-0.017123
1.9487,0.30358,-0.013784
1.95575,0.30437,-0.014757
2.024,0.307195,-0.0157155
2.04275,0.3053,-0.01556
2.0679,0.3094,-0.01892
2.08545,0.30373,-0.015329
2.0923,0.30541,-0.014021
2.1096,0.30244,-0.017163
2.1375,0.30113,-0.019605
2.1473,0.30833,-0.016605
2.1566,0.30258,-0.014716
2.1779,0.30099,-0.018139
2.1908,0.30456,-0.017298
2.2209,0.3089,-0.018275
2.2306,0.30745,-0.018642
2.2742,0.3069,-0.018621
2.2853,0.30545,-0.019071
2.29725,0.305115,-0.017757
2.3099,0.30479,-0.017106
2.311,0.30828,-0.013748
2.325,0.30542,-0.0153885
2.3515,0.30931,-0.014704
2.3701,0.30224,-0.019265
2.5457,0.30312,-0.01669
2.6,0.3041,-0.019467
2.6213,0.30204,-0.013687
2.6461,0.30155,-0.014504
2.6636,0.30781,-0.018421
2.6774,0.30485,-0.016268
2.6846,0.305043,-0.0163777
2.7415,0.30102,-0.01943
2.75455,0.306,-0.0180245
2.7813,0.30288,-0.017252
2.793,0.30743,-0.019077
2.8156,0.30081,-0.016517
2.8796,0.30799,-0.018412
2.9232,0.30386,-0.018177
3.0763,0.3083,-0.014089
3.1858,0.30923,-0.014053
3.2015,0.30972,-0.015199
3.21613,0.308825,-0.0154618
3.2277,0.305295,-0.010906
3.24615,0.30289,-0.011382
3.277,0.30018,-0.013707
3.5009,0.30452,-0.011252
3.5139,0.30269,-0.010543
3.54715,0.30756,-0.0119645
3.5549,0.30763,-0.014485
3.5713,0.30149,-0.016951
3.6035,0.3086,-0.01297
3.6178,0.30203,-0.010759
0.22721,0.31308,-0.019626
0.24304,0.31157,-0.018596
0.31965,0.31697,-0.016119
0.34326,0.3154,-0.019271
0.36682,0.31292,-0.017192
0.37452,0.31136,-0.012162
0.3824,0.3108,-0.013009
0.43426,0.31865,-0.012921
0.454275,0.317565,-0.017295
0.48995,0.3144,-0.018348
0.49801,0.31389,-0.019686
0.50588,0.31303,-0.019027
0.55415,0.31841,-0.011266
0.56291,0.31866,-0.017211
0.574625,0.31715,-0.0153175
0.606525,0.31387,-0.014614
0.61944,0.31356,-0.019739
0.63533,0.31173,-0.018336
0.65175,0.31037,-0.019704
0.66848,0.31956,-0.01896
0.67634,0.31848,-0.017594
0.68399,0.31723,-0.015228
0.69284,0.31697,-0.018619
0.73404,0.31289,-0.01957
0.74144,0.31143,-0.016002
0.75269,0.31921,-0.01915
0.76055,0.31802,-0.017431
0.77771,0.31663,-0.019625
0.79214,0.31339,-0.011172
0.81929,0.31199,-0.018708
0.8367,0.31576,-0.016181
0.84482,0.31464,-0.015057
0.85236,0.31318,-0.012007
0.86801,0.31774,-0.01714
0.89391,0.31499,-0.017966
0.91539,0.31969,-0.012943
0.92643,0.315,-0.016085
0.93423,0.31846,-0.017462
0.95937,0.31492,-0.0146
0.96821,0.31393,-0.014806
0.98661,0.31225,-0.016941
0.99424,0.315025,-0.0179355
1.0001,0.31696,-0.014302
1.0197,0.31561,-0.018904
1.0465,0.31231,-0.018571
1.0536,0.31041,-0.013808
1.0644,0.31005,-0.018134
1.0831,0.31606,-0.01119
1.0961,0.31643,-0.019888
1.1051,0.31521,-0.019468
1.1129,0.31351,-0.016297
1.1236,0.31288,-0.019399
1.133,0.31178,-0.019746
1.1413,0.31021,-0.017353
1.1849,0.3151,-0.01807
1.1932,0.31342,-0.015464
1.201,0.31157,-0.011935
1.2125,0.31484,-0.0145785
1.2245,0.31819,-0.018057
1.2613,0.3162,-0.0141745
1.2739,0.3197,-0.019514
1.2807,0.31734,-0.013941
1.3127,0.31383,-0.017806
1.3302,0.31023,-0.013215
1.3495,0.31954,-0.01775
1.3563,0.31704,-0.011908
1.3661,0.31543,-0.011154
1.3789,0.31469,-0.015454
1.3944,0.31631,-0.017687
1.4085,0.31741,-0.017299
1.4522,0.31147,-0.019719
1.475,0.31563,-0.016196
1.5493,0.31494,-0.017392
1.5658,0.31353,-0.0118085
1.60655,0.315735,-0.0177165
1.6217,0.31721,-0.016307
1.6312,0.31475,-0.013537
1.6437,0.31296,-0.014696
1.6538,0.31061,-0.012612
1.6705,0.3156,-0.016891
1.6824,0.316775,-0.0184575
1.6922,0.314205,-0.0158265
1.7033,0.31506,-0.01613
1.714,0.31262,-0.014576
1.7335,0.31475,-0.01541
1.7443,0.31221,-0.013718
1.7565,0.31992,-0.014301
1.7686,0.31751,-0.014072
1.7842,0.3146,-0.011315
1.8034,0.31773,-0.016495
1.81445,0.317355,-0.017276
1.837,0.31414,-0.016709
1.8429,0.3185,-0.018725
1.9003,0.31557,-0.018635
1.9146,0.31303,-0.019933
1.9253,0.31418,-0.018325
1.9356,0.31076,-0.015085
1.9517,0.31438,-0.013313
1.9785,0.31847,-0.017883
1.9894,0.31491,-0.015184
1.9987,0.31763,-0.014372
2.0268,0.31137,-0.015233
2.0403,0.31613,-0.019177
2.0541,0.31278,-0.019089
2.0634,0.315255,-0.014704
2.078,0.31496,-0.016866
2.0939,0.31175,-0.018743
2.1066,0.31985,-0.018533
2.1218,0.31634,-0.019603
2.1307,0.31497,-0.018122
2.1486,0.31664,-0.018334
2.1702,0.31715,-0.019022
2.19475,0.31626,-0.016832
2.20365,0.31622,-0.015419
2.2155,0.313345,-0.015284
2.2365,0.315075,-0.016743
2.2457,0.31603,-0.019729
2.2567,0.31097,-0.016183
2.2668,0.31908,-0.018651
2.28415,0.316585,-0.018732
2.2966,0.3176,-0.01941
2.3223,0.31964,-0.015459
2.33715,0.315445,-0.0162485
2.3401,0.31246,-0.019642
2.355,0.31158,-0.019628
2.3834,0.31828,-0.016061
2.4189,0.31293,-0.013646
2.4596,0.312,-0.015844
2.5059,0.31107,-0.01827
2.5306,0.31223,-0.019649
2.5435,0.31727,-0.018514
2.585,0.3116,-0.019342
2.6716,0.31462,-0.01515
2.8096,0.31347,-0.017497
2.9564,0.31072,-0.016447
2.96905,0.312165,-0.015297
2.9705,0.31251,-0.018493
3.0963,0.31317,-0.012077
3.1215,0.31379,-0.013535
3.135,0.31368,-0.010704
3.1426,0.31426,-0.017715
3.15503,0.31288,-0.0144523
3.1796,0.31034,-0.018102
3.2093,0.31021,-0.015552
3.2745,0.31765,-0.01075
3.5508,0.31263,-0.010266
3.5761,0.3189,-0.011269
3.5996,0.31453,-0.017037
3.6015,0.31736,-0.014751
0.22534,0.32494,-0.013264
0.28817,0.32018,-0.018336
0.34793,0.32765,-0.017868
0.38717,0.32336,-0.014517
0.39519,0.32329,-0.018271
0.41103,0.32207,-0.019773
0.44364,0.32968,-0.013282
0.45163,0.32918,-0.014832
0.46758,0.32799,-0.016848
0.4757,0.32764,-0.019274
0.49951,0.32533,-0.01948
0.50697,0.32374,-0.01491
0.51536,0.32371,-0.019119
0.53133,0.32222,-0.019599
0.57951,0.32841,-0.017133
0.644265,0.325365,-0.013669
0.654,0.3293,-0.016787
0.67833,0.32667,-0.016666
0.68638,0.32572,-0.016233
0.716803,0.324673,-0.016437
0.72735,0.32409,-0.0138015
0.736305,0.323765,-0.016993
0.75246,0.3244,-0.012989
0.76468,0.32681,-0.0179385
0.784545,0.32388,-0.014438
0.79534,0.32078,-0.0184
0.82516,0.32219,-0.015279
0.84851,0.32848,-0.017595
0.85693,0.32745,-0.017383
0.87466,0.32587,-0.019666
0.88311,0.32482,-0.019334
0.89126,0.32359,-0.018025
0.906895,0.325375,-0.017964
0.91285,0.32752,-0.014556
0.98561,0.324715,-0.0183095
1.0235,0.32548,-0.019852
1.0324,0.32435,-0.019781
1.0414,0.3232,-0.019666
1.0503,0.32205,-0.019509
1.0715,0.32879,-0.013701
1.0804,0.32755,-0.013415
1.0996,0.32554,-0.015426
1.1066,0.32347,-0.010493
1.1189,0.32347,-0.017244
1.1277,0.32612,-0.0149025
1.1353,0.32024,-0.012585
1.1452,0.32719,-0.011058
1.1559,0.32646,-0.014009
1.1943,0.32571,-0.015377
1.204,0.32034,-0.015506
1.2147,0.32761,-0.017962
1.2509,0.32131,-0.01307
1.2872,0.32761,-0.014055
1.2998,0.32703,-0.018849
1.3159,0.32289,-0.011836
1.3261,0.32962,-0.016541
1.33295,0.32535,-0.017499
1.34145,0.32336,-0.014737
1.3559,0.32486,-0.01552
1.38905,0.3246,-0.0164675
1.4125,0.32584,-0.017909
1.44655,0.325455,-0.0157075
1.4636,0.32939,-0.01962
1.4807,0.32474,-0.012985
1.4923,0.32321,-0.014153
1.5028,0.32137,-0.013608
1.5417,0.32043,-0.01202
1.5523,0.32844,-0.014022
1.5657,0.32711,-0.017268
1.5769,0.32518,-0.017198
1.5876,0.32931,-0.013823
1.5965,0.3267,-0.010439
1.601,0.32166,-0.019289
1.6201,0.32287,-0.011538
1.6325,0.32768,-0.015472
1.6484,0.32006,-0.01873
1.6636,0.32827,-0.017226
1.6701,0.32487,-0.010381
1.69395,0.327785,-0.015024
1.7083,0.32359,-0.01047
1.7276,0.32299,-0.019828
1.7382,0.32316,-0.01987
1.7557,0.32775,-0.018474
1.7767,0.32218,-0.014165
1.79525,0.32507,-0.0167305
1.8679,0.32433,-0.012029
1.9123,0.32321,-0.013379
1.9285,0.32091,-0.016873
1.9369,0.32728,-0.016064
1.9519,0.3246,-0.017973
1.96265,0.32447,-0.0170405
1.9938,0.32489,-0.01317
2.0003,0.32994,-0.018675
2.01245,0.32449,-0.017902
2.0236,0.32256,-0.014649
2.054,0.32632,-0.014139
2.07305,0.324935,-0.0161635
2.0865,0.322935,-0.0175145
2.1044,0.32795,-0.016519
2.1264,0.32593,-0.018155
2.1597,0.32478,-0.015293
2.1916,0.32446,-0.017177
2.2071,0.32325,-0.010953
2.2272,0.321755,-0.018056
2.2512,0.32715,-0.013233
2.3085,0.32484,-0.016374
2.333,0.3272,-0.018653
2.345,0.32581,-0.017703
2.3648,0.3262,-0.019218
2.37525,0.322395,-0.0186545
2.3921,0.32492,-0.016463
2.4243,0.3203,-0.012319
2.4336,0.32483,-0.019372
2.442,0.32017,-0.015138
2.4999,0.32053,-0.017288
2.5498,0.3218,-0.017891
2.6596,0.32648,-0.015392
2.6831,0.32433,-0.014703
2.7276,0.325285,-0.017078
2.8079,0.32864,-0.016824
2.8356,0.32273,-0.019233
2.9443,0.32153,-0.016327
2.9507,0.32378,-0.01709
2.9658,0.32523,-0.019716
3.0398,0.32122,-0.01274
3.0787,0.32821,-0.014181
3.0956,0.32754,-0.013453
3.1192,0.32817,-0.016233
3.1267,0.3282,-0.011966
3.1377,0.3275,-0.011501
3.1446,0.32856,-0.011515
3.15505,0.328135,-0.013909
3.16385,0.327315,-0.0145265
3.1825,0.32683,-0.01007
3.19565,0.3246,-0.01721
3.2037,0.325295,-0.014197
3.2137,0.32438,-0.015534
3.22385,0.324065,-0.014979
3.2337,0.322885,-0.0154295
3.5116,0.3258,-0.010677
3.5747,0.32305,-0.01182
3.62623,0.327087,-0.0151543
0.26929,0.33418,-0.01317
0.28504,0.33246,-0.011823
0.34935,0.33996,-0.018539
0.35719,0.33881,-0.016567
0.39641,0.33429,-0.013081
0.41242,0.33374,-0.018523
0.55552,0.33085,-0.016953
0.56378,0.3304,-0.018999
0.58132,0.33676,-0.015223
0.624803,0.334713,-0.0168753
0.6307,0.33826,-0.015148
0.6464,0.33604,-0.012746
0.66839,0.33986,-0.01516
0.675717,0.33529,-0.0155523
0.6962,0.33167,-0.018215
0.70968,0.33574,-0.017749
0.71754,0.33453,-0.016234
0.72539,0.33332,-0.014685
0.73818,0.33974,-0.010192
0.74762,0.33973,-0.015262
0.76498,0.33842,-0.018578
0.77357,0.33766,-0.019699
0.79714,0.33374,-0.014264
0.80653,0.33347,-0.018085
0.811,0.33981,-0.014641
0.8233,0.3315,-0.018003
0.83197,0.33067,-0.018853
0.84565,0.33639,-0.018069
0.87994,0.33246,-0.018969
0.90646,0.33815,-0.01133
0.94125,0.33397,-0.012079
0.95595,0.333195,-0.0167125
0.96838,0.3312,-0.014759
1.0082,0.33675,-0.012666
1.0171,0.3356,-0.012682
1.0267,0.33477,-0.014488
1.0648,0.331,-0.019406
1.0926,0.33584,-0.017503
1.1301,0.33972,-0.019016
1.1487,0.33707,-0.018808
1.1574,0.33547,-0.017296
1.2102,0.33916,-0.015531
1.222,0.33859,-0.019919
1.239,0.33494,-0.01534
1.2569,0.33157,-0.012351
1.26815,0.334885,-0.017275
1.2858,0.33548,-0.015747
1.3619,0.33418,-0.019543
1.3712,0.33229,-0.017959
1.382,0.33086,-0.018877
1.3985,0.339,-0.016581
1.4143,0.336545,-0.016902
1.426,0.33282,-0.010391
1.4416,0.33262,-0.018561
1.4557,0.33504,-0.012943
1.4693,0.33412,-0.0176
1.4892,0.33009,-0.015096
1.5002,0.3386,-0.018067
1.5124,0.33709,-0.02
1.5296,0.33205,-0.013024
1.5459,0.33797,-0.017961
1.557,0.33602,-0.018025
1.5759,0.33117,-0.013121
1.6079,0.33939,-0.019781
1.61425,0.334515,-0.017408
1.62697,0.334877,-0.016377
1.6398,0.33243,-0.01652
1.6405,0.3375,-0.013741
1.6532,0.333165,-0.0171105
1.6758,0.33678,-0.017958
1.69555,0.335385,-0.015668
1.704,0.33633,-0.013917
1.7108,0.33802,-0.012279
1.72385,0.333275,-0.0163455
1.7354,0.33336,-0.013121
1.7418,0.3383,-0.015982
1.7569,0.33652,-0.019761
1.7791,0.33102,-0.017073
1.7997,0.33726,-0.019729
1.8347,0.33358,-0.017562
1.8488,0.33763,-0.013979
1.8616,0.33484,-0.014154
1.8828,0.33868,-0.013497
1.8982,0.3363,-0.016485
1.9468,0.33048,-0.016057
1.9672,0.33134,-0.013311
1.9703,0.33587,-0.015163
1.98335,0.335835,-0.0162645
2.0463,0.334015,-0.0187525
2.0703,0.33796,-0.018186
2.082,0.33384,-0.015999
2.0997,0.33997,-0.011559
2.1169,0.33667,-0.014899
2.13,0.33254,-0.013953
2.1729,0.3377,-0.019315
2.2187,0.33207,-0.014676
2.2266,0.33598,-0.0130025
2.2352,0.33155,-0.011868
2.2649,0.33699,-0.018704
2.27535,0.333825,-0.0146555
2.3032,0.33525,-0.014339
2.3155,0.33196,-0.016205
2.3336,0.3369,-0.017617
2.3547,0.33476,-0.019708
2.3629,0.33994,-0.018395
2.37595,0.33218,-0.016197
2.3861,0.33896,-0.017811
2.4251,0.33761,-0.014167
2.4464,0.3324,-0.019662
2.4681,0.3334,-0.015503
2.5185,0.3343,-0.019083
2.5987,0.33442,-0.019918
2.6328,0.33797,-0.019843
2.6758,0.33097,-0.019527
2.7432,0.33245,-0.01788
2.7573,0.33829,-0.019528
2.8187,0.33185,-0.018677
2.8714,0.33538,-0.019627
2.8882,0.33937,-0.019254
3.0599,0.33541,-0.013906
3.073,0.3375,-0.011653
3.0845,0.338095,-0.014942
3.1942,0.33888,-0.013876
3.2142,0.338433,-0.0126967
3.2332,0.338243,-0.012551
3.2444,0.3368,-0.01445
3.2633,0.33474,-0.014414
3.36397,0.331417,-0.0128467
3.5375,0.33858,-0.011153
3.6035,0.33088,-0.011191
3.6169,0.332535,-0.017671
0.24702,0.34892,-0.012582
0.28642,0.34465,-0.010487
0.30205,0.34468,-0.018844
0.33359,0.34168,-0.019432
0.39725,0.34773,-0.019571
0.424575,0.343875,-0.0143075
0.45219,0.34106,-0.014524
0.46012,0.34035,-0.015069
0.47021,0.34912,-0.01756
0.5171,0.34281,-0.011104
0.526195,0.346385,-0.015999
0.545595,0.340895,-0.0167745
0.57473,0.34474,-0.016648
0.58217,0.34313,-0.012787
0.59548,0.34765,-0.013046
0.6041,0.34747,-0.016874
0.62,0.34543,-0.015688
0.63657,0.34409,-0.018235
0.64391,0.34241,-0.014132
0.65302,0.34253,-0.019667
0.67413,0.34849,-0.016202
0.68278,0.34802,-0.018704
0.694895,0.346465,-0.018047
0.71508,0.34384,-0.016789
0.76996,0.34529,-0.017085
0.8034,0.34135,-0.017482
0.83937,0.34724,-0.014504
0.84749,0.34598,-0.013415
0.85732,0.34578,-0.017943
0.88204,0.34209,-0.015271
0.89984,0.34034,-0.017361
0.94886,0.34589,-0.018803
0.95737,0.34463,-0.018176
0.97543,0.34262,-0.019576
0.98363,0.34117,-0.017904
0.99342,0.34907,-0.016883
1.003,0.34825,-0.018826
1.0146,0.34559,-0.0143085
1.0662,0.34885,-0.019689
1.0818,0.34518,-0.013766
1.1344,0.34996,-0.014838
1.1526,0.34705,-0.01373
1.162,0.34574,-0.014001
1.172,0.34459,-0.015115
1.1832,0.34393,-0.018841
1.1983,0.34851,-0.015158
1.20405,0.343725,-0.0149215
1.2568,0.34007,-0.016575
1.2612,0.34945,-0.018048
1.3213,0.34045,-0.019395
1.3563,0.34522,-0.014541
1.3656,0.34329,-0.013007
1.3821,0.34705,-0.012032
1.4053,0.34442,-0.016304
1.4178,0.34331,-0.019607
1.4266,0.34107,-0.016962
1.4784,0.34889,-0.014662
1.5099,0.34291,-0.0133
1.5214,0.34822,-0.016819
1.53475,0.3434,-0.019071
1.5575,0.344665,-0.0166625
1.5697,0.34448,-0.013631
1.5915,0.34016,-0.012706
1.6019,0.34884,-0.01118
1.6159,0.34739,-0.015015
1.621,0.3427,-0.018335
1.6328,0.34966,-0.01203
1.64325,0.34564,-0.015882
1.6928,0.3477,-0.014066
1.7083,0.34621,-0.018946
1.7675,0.34068,-0.010265
1.7711,0.34658,-0.015345
1.86583,0.34497,-0.014589
1.8805,0.34535,-0.014256
1.9196,0.34493,-0.018579
1.9342,0.34623,-0.018787
1.9658,0.34159,-0.012976
1.9762,0.34775,-0.0172
1.983,0.34303,-0.010356
1.9982,0.34876,-0.019731
2.0079,0.3482,-0.019229
2.0105,0.34505,-0.018595
2.0214,0.34103,-0.015953
2.0306,0.34918,-0.019343
2.0415,0.34502,-0.016653
2.0532,0.34098,-0.014616
2.0696,0.34413,-0.016562
2.0764,0.34857,-0.015877
2.0875,0.344543,-0.0172277
2.12395,0.347475,-0.016387
2.13735,0.34323,-0.015859
2.1412,0.34975,-0.019456
2.1926,0.34147,-0.017034
2.20435,0.34391,-0.016578
2.2315,0.3487,-0.012302
2.24375,0.34458,-0.011111
2.26445,0.34077,-0.016958
2.3071,0.34497,-0.013807
2.3371,0.34806,-0.019862
2.4167,0.3448,-0.019525
2.4287,0.3412,-0.017232
2.4323,0.34363,-0.018723
2.4567,0.34046,-0.018307
2.4833,0.343685,-0.0186605
2.5123,0.34837,-0.019346
2.545,0.344785,-0.0162895
2.5546,0.34556,-0.018736
2.6176,0.34509,-0.019964
2.6999,0.34209,-0.017107
2.766,0.34025,-0.019198
3.0856,0.34315,-0.015371
3.0953,0.34281,-0.01344
3.1059,0.34217,-0.010008
3.1142,0.34354,-0.013245
3.1208,0.34227,-0.012821
3.1327,0.34274,-0.010873
3.146,0.34271,-0.0113225
3.1517,0.34279,-0.012698
3.1659,0.34261,-0.013018
3.18,0.34139,-0.015313
3.202,0.34265,-0.015521
3.3858,0.344885,-0.012291
3.5742,0.34544,-0.011633
0.31833,0.35515,-0.015765
0.3262,0.35417,-0.014924
0.39907,0.35674,-0.017615
0.41468,0.3544,-0.014247
0.42289,0.35465,-0.019863
0.43445,0.35243,-0.0149885
0.46241,0.35025,-0.019008
0.47125,0.35602,-0.016036
0.50021,0.35899,-0.015857
0.52449,0.35706,-0.019763
0.54802,0.35373,-0.016532
0.55589,0.35267,-0.015712
0.56429,0.35236,-0.018751
0.57734,0.35975,-0.016163
0.58579,0.3594,-0.01911
0.59383,0.35847,-0.019109
0.60171,0.35733,-0.018104
0.62483,0.35332,-0.011979
0.63782,0.35975,-0.010488
0.65441,0.35829,-0.012913
0.66664,0.35006,-0.019448
0.67182,0.35754,-0.019043
0.68009,0.35667,-0.01964
0.69584,0.35417,-0.01688
0.7037,0.35291,-0.015449
0.72879,0.35037,-0.017658
0.78542,0.354405,-0.0164195
0.82366,0.3501,-0.018466
0.84429,0.35829,-0.013876
0.86168,0.35639,-0.015415
0.87914,0.35445,-0.016792
0.88699,0.35292,-0.014609
0.89695,0.35265,-0.018942
0.9039,0.35056,-0.013879
0.91453,0.35062,-0.01999
0.92989,0.35605,-0.010328
0.94127,0.35642,-0.018161
0.96714,0.35271,-0.017242
0.97407,0.35989,-0.012193
1.01545,0.35516,-0.0164795
1.0593,0.35967,-0.010268
1.0983,0.35564,-0.016531
1.1065,0.35389,-0.014372
1.1171,0.35317,-0.017569
1.1238,0.35071,-0.011736
1.1326,0.35842,-0.01517
1.1416,0.35692,-0.014668
1.18525,0.35113,-0.0176265
1.2013,0.35766,-0.01399
1.2231,0.35574,-0.019356
1.2353,0.35262,-0.0148975
1.2502,0.35049,-0.015606
1.2784,0.35881,-0.018233
1.2839,0.35564,-0.010146
1.2959,0.35483,-0.014146
1.3061,0.35333,-0.014628
1.3182,0.35248,-0.018501
1.3226,0.35755,-0.01402
1.3328,0.35596,-0.014386
1.3435,0.35451,-0.015555
1.3558,0.35354,-0.019227
1.3708,0.35918,-0.012569
1.3836,0.35829,-0.016942
1.3909,0.35554,-0.011944
1.4022,0.35411,-0.013663
1.4121,0.35216,-0.012796
1.4234,0.35068,-0.014396
1.4388,0.35725,-0.019055
1.4471,0.35469,-0.01553
1.4768,0.35559,-0.014528
1.4966,0.35966,-0.018752
1.51475,0.35304,-0.018403
1.5287,0.3535,-0.018055
1.5645,0.3533,-0.018009
1.5733,0.35058,-0.014802
1.5841,0.35447,-0.017775
1.59165,0.355485,-0.0151975
1.6009,0.35692,-0.015013
1.62345,0.355275,-0.017206
1.6341,0.357505,-0.015812
1.68415,0.354595,-0.0141345
1.7005,0.35701,-0.016283
1.71245,0.357205,-0.016629
1.7269,0.35267,-0.019702
1.8056,0.35543,-0.0111
1.8221,0.35358,-0.016101
1.8368,0.35125,-0.018735
1.893,0.35515,-0.015866
1.9019,0.35116,-0.011489
1.951,0.35475,-0.01836
1.96373,0.354357,-0.0144497
1.98343,0.355347,-0.0170297
1.997,0.35799,-0.017746
2.0059,0.35344,-0.013091
2.0108,0.35149,-0.012626
2.0256,0.3511,-0.019876
2.045,0.35221,-0.019181
2.0628,0.3524,-0.015811
2.0931,0.3534,-0.016935
2.11125,0.35559,-0.015401
2.1369,0.35909,-0.017379
2.2358,0.3517,-0.017617
2.25583,0.3548,-0.016592
2.2601,0.35999,-0.010051
2.27875,0.35724,-0.0171585
2.2933,0.35039,-0.014423
2.3182,0.35281,-0.015881
2.3347,0.35141,-0.019143
2.3871,0.35695,-0.019051
2.4023,0.35097,-0.019654
2.4114,0.35944,-0.016658
2.45245,0.356875,-0.016924
2.4672,0.35139,-0.016096
2.4957,0.3552,-0.017461
2.6628,0.35667,-0.019806
2.6872,0.35151,-0.017086
2.69435,0.355565,-0.017688
2.72377,0.355483,-0.015823
2.8312,0.35263,-0.017362
2.899,0.3544,-0.017205
2.9107,0.35829,-0.017257
2.94725,0.351875,-0.0139455
2.9539,0.35153,-0.019427
2.9656,0.35303,-0.01959
3.051,0.35059,-0.013413
3.0637,0.35162,-0.0140185
3.0733,0.35167,-0.01214
3.0851,0.354273,-0.0116547
3.10545,0.357685,-0.0138655
3.1245,0.357595,-0.0141315
3.14,0.35686,-0.011101
3.1537,0.35752,-0.011092
3.16285,0.358,-0.011521
3.1782,0.35782,-0.014799
3.1825,0.35799,-0.013961
3.19,0.35622,-0.015289
3.2061,0.35526,-0.013064
3.2197,0.35314,-0.013678
3.2213,0.35362,-0.010562
3.2358,0.35434,-0.01773
3.253,0.35384,-0.016124
3.3597,0.35062,-0.010568
3.4146,0.35792,-0.010336
3.5543,0.3552,-0.010615
0.2473,0.36271,-0.016896
0.27194,0.364835,-0.0151785
0.28076,0.36859,-0.013549
0.32804,0.36361,-0.013934
0.35273,0.36818,-0.011595
0.36071,0.36831,-0.016506
0.39996,0.36308,-0.012135
0.40521,0.36947,-0.014708
0.41601,0.36243,-0.017593
0.43698,0.36649,-0.017593
0.44493,0.36572,-0.018229
0.45268,0.36436,-0.015897
0.46087,0.36417,-0.019397
0.48472,0.36158,-0.019914
0.49252,0.36038,-0.01839
0.50588,0.36872,-0.01915
0.52078,0.36503,-0.010066
0.53767,0.36485,-0.018382
0.54556,0.36377,-0.017617
0.56185,0.36236,-0.019875
0.58289,0.36819,-0.018789
0.594865,0.366645,-0.0183225
0.61489,0.3641,-0.017705
0.64708,0.36007,-0.017029
0.66588,0.36892,-0.01463
0.67374,0.36765,-0.013342
0.69125,0.36682,-0.01931
0.71446,0.36251,-0.013104
0.72209,0.361,-0.01065
0.765465,0.36907,-0.0162735
0.78587,0.36609,-0.014821
0.79398,0.36484,-0.013986
0.80209,0.36358,-0.013114
0.83725,0.36034,-0.018707
0.87279,0.36598,-0.019491
0.88066,0.3644,-0.017353
0.89819,0.36233,-0.018586
0.92119,0.36676,-0.010045
0.93252,0.36715,-0.017939
0.954285,0.3641,-0.0179575
0.96724,0.36217,-0.017483
0.99896,0.36985,-0.015808
1.0075,0.3684,-0.015006
1.0182,0.36805,-0.019656
1.0432,0.36323,-0.015045
1.0522,0.36191,-0.014948
1.0753,0.36567,-0.010033
1.1067,0.36337,-0.019116
1.1248,0.36457,-0.0145795
1.1714,0.36145,-0.010834
1.1839,0.36126,-0.017253
1.2096,0.36934,-0.016272
1.217,0.36692,-0.01193
1.2302,0.36679,-0.018959
1.2577,0.36153,-0.016053
1.2718,0.36527,-0.0114
1.3332,0.3671,-0.017486
1.3512,0.36291,-0.013841
1.363,0.36173,-0.016633
1.3963,0.36432,-0.017578
1.406,0.3698,-0.018957
1.4396,0.36826,-0.012668
1.4542,0.36764,-0.01917
1.463,0.36513,-0.01645
1.4765,0.36947,-0.016474
1.498,0.36544,-0.016593
1.5079,0.36315,-0.015335
1.5173,0.36067,-0.013207
1.53295,0.36368,-0.0156645
1.54765,0.364245,-0.015789
1.5597,0.36662,-0.019827
1.5661,0.36608,-0.0155
1.6045,0.36754,-0.018981
1.6134,0.36456,-0.015675
1.6234,0.36189,-0.013922
1.6678,0.36501,-0.019268
1.6868,0.36438,-0.01393
1.7415,0.36298,-0.01765
1.7547,0.36062,-0.01922
1.7806,0.3685,-0.013396
1.7933,0.36578,-0.014035
1.8059,0.36302,-0.014603
1.8197,0.36946,-0.019887
1.82825,0.36781,-0.014375
1.8442,0.36564,-0.018556
1.8561,0.36028,-0.018797
1.8798,0.3652,-0.017598
1.9236,0.368945,-0.018311
1.947,0.36951,-0.014498
1.9639,0.3669,-0.018787
2.0048,0.36337,-0.018987
2.0221,0.36821,-0.019712
2.0358,0.3686,-0.01338
2.048,0.36034,-0.018902
2.0542,0.36573,-0.018662
2.0747,0.36657,-0.018005
2.106,0.36697,-0.01392
2.1246,0.36578,-0.01621
2.1439,0.36458,-0.019119
2.1537,0.36453,-0.019561
2.1643,0.36975,-0.017308
2.173,0.36414,-0.012353
2.19355,0.363505,-0.018076
2.2127,0.36681,-0.013855
2.2285,0.36223,-0.015607
2.2664,0.36696,-0.017964
2.2756,0.36914,-0.015988
2.2928,0.36828,-0.019999
2.3139,0.36757,-0.017802
2.3216,0.36077,-0.012023
2.3461,0.36043,-0.019648
2.3763,0.36902,-0.019936
2.3993,0.36616,-0.01853
2.4095,0.36236,-0.013519
2.4581,0.3634,-0.013607
2.5634,0.36498,-0.01637
2.707,0.36262,-0.016716
2.7199,0.36829,-0.018234
2.7549,0.36672,-0.01895
2.7991,0.36778,-0.017675
2.9299,0.36229,-0.016526
2.9427,0.36478,-0.01864
2.9576,0.3659,-0.017903
3.0345,0.363285,-0.012054
3.0534,0.36537,-0.015843
3.0636,0.36607,-0.011105
3.0777,0.36712,-0.015037
3.0833,0.36748,-0.011383
3.0918,0.36793,-0.014779
3.224,0.368325,-0.0139945
3.2359,0.3689,-0.012401
3.2421,0.36843,-0.014154
3.2525,0.36733,-0.012126
3.261,0.36811,-0.013358
3.461,0.36597,-0.011317
3.4983,0.36968,-0.011238
3.5201,0.36537,-0.011851
3.5809,0.36856,-0.011405
3.6018,0.36409,-0.018085
0.32126,0.37278,-0.01709
0.33427,0.37816,-0.017974
0.34217,0.37729,-0.018073
0.41819,0.37742,-0.01208
0.42624,0.37705,-0.01476
0.43424,0.37648,-0.016429
0.46611,0.37329,-0.01885
0.47367,0.37147,-0.014488
0.48706,0.37971,-0.018712
0.49496,0.37865,-0.018177
0.5263,0.3739,-0.013753
0.57656,0.37903,-0.010075
0.605905,0.377255,-0.0183635
0.658,0.37019,-0.015883
0.67812,0.37914,-0.010909
0.69625,0.37886,-0.019735
0.71224,0.37635,-0.01786
0.74554,0.3724,-0.019416
0.7797,0.37816,-0.017964
0.81219,0.37296,-0.014587
0.82164,0.3726,-0.018375
0.8382,0.37012,-0.017332
0.90581,0.37029,-0.015529
0.92846,0.37968,-0.014321
0.93663,0.37813,-0.012913
0.95526,0.37635,-0.016459
0.98186,0.37271,-0.017296
0.99041,0.37129,-0.016572
1.0067,0.37804,-0.017677
1.0132,0.3754,-0.01137
1.0504,0.37077,-0.015015
1.0623,0.37506,-0.0179155
1.0735,0.37892,-0.01895
1.0919,0.37618,-0.019411
1.1088,0.37264,-0.016098
1.1175,0.37095,-0.014833
1.1528,0.37837,-0.015857
1.1615,0.37656,-0.014413
1.1718,0.37548,-0.016478
1.1967,0.37886,-0.015106
1.2085,0.37822,-0.019646
1.225,0.37396,-0.0145
1.236,0.3729,-0.017123
1.2461,0.37146,-0.01794
1.2643,0.37909,-0.01801
1.2735,0.3772,-0.016968
1.2804,0.3744,-0.011552
1.3118,0.37729,-0.011106
1.3229,0.37598,-0.013287
1.3365,0.37554,-0.019687
1.3443,0.37295,-0.015762
1.371,0.37391,-0.011843
1.3851,0.37514,-0.0131835
1.3937,0.37096,-0.015524
1.4111,0.37493,-0.017022
1.43125,0.37365,-0.0137495
1.4426,0.37475,-0.012955
1.4525,0.3792,-0.015498
1.4614,0.3766,-0.012828
1.4734,0.37502,-0.015082
1.4927,0.37887,-0.017212
1.5073,0.37869,-0.011352
1.5208,0.37126,-0.011024
1.5347,0.37002,-0.015391
1.5446,0.3756,-0.0154815
1.55675,0.37375,-0.017304
1.57545,0.372945,-0.0173675
1.5939,0.37002,-0.019832
1.6064,0.37583,-0.013216
1.6182,0.37359,-0.013925
1.6276,0.37633,-0.011492
1.6317,0.37182,-0.016956
1.6831,0.37621,-0.018087
1.6901,0.37239,-0.012179
1.7152,0.37884,-0.018104
1.7385,0.37334,-0.017688
1.7736,0.3726,-0.019588
1.7881,0.37353,-0.011129
1.7931,0.37938,-0.015017
1.80385,0.37379,-0.014463
1.8178,0.37349,-0.01546
1.8727,0.37414,-0.016412
1.8835,0.37049,-0.014442
1.8938,0.37575,-0.018931
1.9001,0.37095,-0.011704
1.9172,0.37878,-0.015266
1.924,0.37702,-0.017394
1.9388,0.37404,-0.019647
1.9607,0.37325,-0.013736
1.9926,0.37049,-0.012137
2.0044,0.37105,-0.014966
2.0147,0.37755,-0.01901
2.04715,0.37677,-0.0188485
2.0587,0.37235,-0.0170255
2.1095,0.37191,-0.012136
2.152,0.37464,-0.018757
2.191,0.37779,-0.01967
2.2137,0.3705,-0.019625
2.2505,0.3719,-0.016256
2.29715,0.37455,-0.01462
2.3439,0.37831,-0.018179
2.3538,0.37151,-0.014507
2.3789,0.37135,-0.013181
2.4027,0.37007,-0.019865
2.4507,0.37144,-0.019203
2.5268,0.37322,-0.018148
2.5817,0.37518,-0.018871
2.6455,0.3774,-0.019747
2.6512,0.37974,-0.018445
2.6768,0.37664,-0.018908
2.7098,0.37852,-0.019468
2.7297,0.37079,-0.018099
2.733,0.37395,-0.014801
2.7434,0.3771,-0.018716
2.76445,0.373435,-0.0146125
2.7749,0.37671,-0.013337
2.924,0.3752,-0.017012
3.0318,0.37767,-0.011384
3.0499,0.37935,-0.014409
3.0574,0.3797,-0.014119
3.106,0.3723,-0.012936
3.1263,0.3728,-0.014584
3.1415,0.37287,-0.016879
3.15365,0.3729,-0.0145345
3.1692,0.37256,-0.012693
3.18365,0.37229,-0.011107
3.1938,0.37283,-0.014547
3.2058,0.37191,-0.018811
3.2138,0.37114,-0.011481
3.3441,0.37323,-0.010143
3.41795,0.375965,-0.0111415
3.4279,0.37196,-0.01088
3.4955,0.37421,-0.010805
3.542,0.37877,-0.010873
3.55625,0.37692,-0.013592
3.5771,0.37227,-0.01567
3.619,0.37619,-0.01323
0.23153,0.38904,-0.014571
0.25798,0.38007,-0.018605
0.29484,0.38117,-0.011097
0.30265,0.38178,-0.018216
0.32362,0.38998,-0.019304
0.37886,0.38258,-0.014787
0.38693,0.38267,-0.019594
0.39476,0.38131,-0.017521
0.40778,0.38938,-0.019257
0.42343,0.38676,-0.015905
0.435525,0.38607,-0.019401
0.45529,0.38351,-0.018558
0.47101,0.38122,-0.016753
0.54582,0.38494,-0.019183
0.56162,0.38261,-0.017604
0.61441,0.38869,-0.01641
0.634635,0.38612,-0.01661
0.66313,0.38259,-0.017299
0.69744,0.38954,-0.019116
0.7045,0.38732,-0.013902
0.71343,0.38693,-0.017265
0.72131,0.38551,-0.015809
0.74605,0.38222,-0.016004
0.77946,0.38834,-0.016877
0.78833,0.38761,-0.018947
0.80486,0.38512,-0.018237
0.83878,0.3806,-0.019198
0.868,0.38807,-0.012862
0.8779,0.38779,-0.017331
0.96231,0.38444,-0.016558
0.97218,0.38377,-0.01963
1.0001,0.38912,-0.01443
1.019,0.387,-0.017423
1.0283,0.38582,-0.018394
1.0369,0.38423,-0.017498
1.044,0.38187,-0.012926
1.0522,0.38008,-0.01105
1.0859,0.3876,-0.010419
1.0953,0.38627,-0.01108
1.1043,0.38474,-0.010796
1.1343,0.38138,-0.015944
1.15555,0.38641,-0.0174565
1.2061,0.38883,-0.01717
1.25465,0.38456,-0.0161575
1.2841,0.38325,-0.014584
1.314,0.38598,-0.017392
1.3252,0.38464,-0.019586
1.3325,0.38184,-0.014875
1.358,0.38369,-0.013701
1.3673,0.38152,-0.01227
1.3718,0.38885,-0.015055
1.3816,0.38395,-0.0168415
1.3939,0.38561,-0.017967
1.4323,0.38347,-0.016535
1.44055,0.38509,-0.015693
1.453,0.38851,-0.0154225
1.4603,0.38493,-0.016345
1.4713,0.38622,-0.0193005
1.488,0.38366,-0.01452
1.4973,0.3811,-0.012549
1.5061,0.388,-0.019717
1.5524,0.38796,-0.015192
1.5858,0.38106,-0.015626
1.6082,0.38209,-0.01566
1.6233,0.38821,-0.014546
1.638,0.38668,-0.019196
1.6457,0.3831,-0.01426
1.6587,0.381,-0.016395
1.6932,0.38455,-0.019833
1.7058,0.383205,-0.0148935
1.7263,0.385585,-0.0142405
1.757,0.38347,-0.017288
1.7691,0.3853,-0.015065
1.7842,0.38316,-0.018895
1.7939,0.38705,-0.018115
1.8035,0.38334,-0.01499
1.8447,0.38899,-0.019772
1.8524,0.3888,-0.017372
1.8849,0.38694,-0.016066
1.9077,0.38299,-0.018779
1.9336,0.38999,-0.018191
1.9471,0.38656,-0.019011
1.9957,0.3801,-0.012729
2.0188,0.382,-0.01528
2.0413,0.38837,-0.016168
2.0749,0.38601,-0.017854
2.1263,0.38737,-0.017587
2.1385,0.38251,-0.016317
2.1522,0.38047,-0.01734
2.1745,0.38755,-0.017353
2.2004,0.38747,-0.019293
2.2482,0.38408,-0.017451
2.2563,0.38941,-0.016324
2.28715,0.384475,-0.0175695
2.3101,0.38559,-0.013425
2.32665,0.38195,-0.0154915
2.3477,0.38123,-0.019417
2.3518,0.38394,-0.013924
2.3741,0.38268,-0.019409
2.3804,0.38826,-0.016832
2.4005,0.3884,-0.015335
2.4427,0.38399,-0.0199
2.4718,0.38611,-0.019137
2.4865,0.38381,-0.019342
2.5362,0.38089,-0.016249
2.5495,0.3862,-0.019425
2.5502,0.38757,-0.018338
2.7181,0.38092,-0.018007
2.76275,0.38662,-0.0142175
2.7792,0.38992,-0.018
2.8432,0.38431,-0.019767
2.9189,0.3882,-0.018025
3.0745,0.38086,-0.013196
3.0863,0.3817,-0.011026
3.1151,0.38722,-0.012831
3.1287,0.38773,-0.010966
3.143,0.38706,-0.013335
3.169,0.38846,-0.014783
3.1829,0.38851,-0.0135687
3.1917,0.38702,-0.011442
3.2138,0.38689,-0.011626
3.2327,0.38582,-0.0169515
3.24773,0.383337,-0.0130957
3.26555,0.38251,-0.0116785
3.3748,0.38475,-0.010791
3.4355,0.38883,-0.013996
3.4416,0.38841,-0.013691
3.5226,0.38366,-0.01205
3.5398,0.38319,-0.013937
3.5485,0.38272,-0.010229
3.5831,0.38946,-0.015193
3.5967,0.38507,-0.012629
3.6031,0.38497,-0.015212
3.6119,0.38257,-0.014352
0.2444,0.39889,-0.017835
0.26816,0.39642,-0.01922
0.30781,0.3909,-0.014982
0.31571,0.39023,-0.016182
0.32462,0.398105,-0.0133775
0.364135,0.39388,-0.015804
0.434,0.39766,-0.013745
0.44216,0.39746,-0.017351
0.46563,0.39362,-0.013343
0.54973,0.39626,-0.012919
0.58265,0.39349,-0.0193
0.59027,0.39184,-0.016453
0.64709,0.39444,-0.011335
0.66412,0.39319,-0.015679
0.69659,0.39948,-0.014976
0.74627,0.39296,-0.01675
0.75415,0.39146,-0.015173
0.81423,0.396825,-0.0165735
0.86071,0.39014,-0.01678
0.88517,0.39658,-0.018473
0.89334,0.39503,-0.017277
0.91092,0.3927,-0.018497
0.97478,0.39388,-0.017418
0.98401,0.39277,-0.018604
0.99257,0.39125,-0.017911
1.0411,0.39497,-0.010974
1.0527,0.39491,-0.017297
1.0793,0.39026,-0.016031
1.0851,0.39725,-0.014312
1.0941,0.39568,-0.014101
1.124,0.39226,-0.019474
1.1382,0.39906,-0.01238
1.1509,0.39913,-0.019943
1.1696,0.39588,-0.019786
1.1878,0.39239,-0.018565
1.2075,0.39715,-0.01575
1.2145,0.39435,-0.010617
1.2381,0.39289,-0.01949
1.2462,0.39867,-0.01869
1.255,0.39653,-0.016909
1.272,0.39202,-0.012358
1.3065,0.39228,-0.010722
1.3239,0.39926,-0.019175
1.3337,0.39729,-0.018787
1.3537,0.39347,-0.018717
1.3605,0.39034,-0.013087
1.3786,0.39261,-0.012726
1.3909,0.39141,-0.0163
1.4048,0.397255,-0.0129385
1.4141,0.39487,-0.011353
1.4255,0.39652,-0.015345
1.4489,0.39322,-0.019446
1.4502,0.39786,-0.015065
1.4606,0.39569,-0.014954
1.4841,0.39216,-0.018695
1.5098,0.39736,-0.016244
1.5165,0.39375,-0.010142
1.53225,0.39612,-0.0173805
1.5898,0.39569,-0.014526
1.6027,0.39374,-0.016993
1.61625,0.394855,-0.014334
1.6333,0.39692,-0.016383
1.6416,0.39344,-0.012296
1.6537,0.39932,-0.015925
1.6673,0.39728,-0.01887
1.7093,0.39462,-0.016444
1.7249,0.39779,-0.019025
1.735,0.39445,-0.016963
1.7465,0.3953,-0.0174825
1.7763,0.39969,-0.017867
1.7959,0.39234,-0.012579
1.8016,0.39684,-0.011913
1.8295,0.39576,-0.019313
1.83455,0.391705,-0.0165505
1.8452,0.39994,-0.018344
1.8575,0.39297,-0.013069
1.90465,0.394515,-0.018065
1.9179,0.39778,-0.018572
1.9356,0.39992,-0.016979
1.9422,0.39023,-0.017466
1.97555,0.398565,-0.019054
1.9809,0.39395,-0.016383
1.9971,0.39083,-0.019935
2.0341,0.39839,-0.016585
2.0469,0.396975,-0.018146
2.0647,0.39999,-0.011891
2.0776,0.39554,-0.011599
2.0974,0.39257,-0.018257
2.1005,0.39947,-0.019321
2.1112,0.39158,-0.015992
2.128,0.39509,-0.011146
2.1688,0.39655,-0.015102
2.1867,0.39249,-0.019299
2.2031,0.39486,-0.012747
2.22325,0.395035,-0.0149435
2.2434,0.39502,-0.017102
2.2759,0.39234,-0.019997
2.2987,0.39189,-0.015627
2.3018,0.39848,-0.015385
2.316,0.39026,-0.018084
2.34225,0.392665,-0.0167395
2.3774,0.39278,-0.016788
2.3848,0.39466,-0.013608
2.4091,0.39667,-0.014559
2.4562,0.39299,-0.017449
2.4876,0.39636,-0.019443
2.584,0.39222,-0.019965
2.6727,0.39172,-0.018925
2.74,0.39256,-0.014625
2.8325,0.3958,-0.018291
2.9562,0.39499,-0.015377
3.0153,0.39,-0.011597
3.0276,0.39232,-0.010251
3.03493,0.39247,-0.0152853
3.04625,0.39313,-0.013996
3.0506,0.39196,-0.010567
3.06425,0.396985,-0.0104435
3.08647,0.397523,-0.0142443
3.0904,0.39763,-0.015911
3.1519,0.39002,-0.013138
3.2415,0.39911,-0.015992
3.2574,0.39836,-0.015202
3.2667,0.39797,-0.011527
3.2837,0.39838,-0.01399
3.4226,0.39462,-0.014758
3.4365,0.39428,-0.014746
3.5469,0.39778,-0.012701
3.5785,0.39178,-0.012208
3.6294,0.39955,-0.016449
0.285085,0.40333,-0.0154735
0.30487,0.40058,-0.013804
0.31276,0.40011,-0.016004
0.363,0.40788,-0.019734
0.37074,0.40537,-0.012918
0.3866,0.40381,-0.014792
0.39459,0.40324,-0.016653
0.40254,0.40244,-0.017504
0.41831,0.40017,-0.01618
0.50165,0.40182,-0.010042
0.51859,0.40186,-0.019553
0.55087,0.4076,-0.012111
0.57478,0.40427,-0.011661
0.59916,0.4015,-0.013797
0.62354,0.40976,-0.015144
0.6321,0.40926,-0.017938
0.64036,0.40831,-0.018772
0.66406,0.40412,-0.015299
0.68889,0.40113,-0.017264
0.72651,0.40897,-0.014397
0.76847,0.4036,-0.017123
0.78522,0.40129,-0.017571
0.79084,0.40938,-0.013182
0.81679,0.40632,-0.016377
0.84205,0.40252,-0.016398
0.88808,0.40731,-0.017132
0.89746,0.40654,-0.019666
0.90565,0.40493,-0.018437
0.91322,0.40289,-0.015315
0.92234,0.40188,-0.016798
0.93116,0.40065,-0.017311
0.95326,0.40933,-0.011696
0.97298,0.40793,-0.017943
1.0384,0.40384,-0.010189
1.104,0.40667,-0.018203
1.1106,0.40384,-0.012552
1.1307,0.40152,-0.016349
1.1409,0.40827,-0.013533
1.1503,0.40673,-0.013989
1.18765,0.40425,-0.014882
1.1956,0.40603,-0.012904
1.2174,0.40385,-0.018528
1.2252,0.40136,-0.01513
1.2361,0.40022,-0.01781
1.2499,0.40389,-0.014285
1.2749,0.40866,-0.019521
1.2938,0.40469,-0.018322
1.30497,0.406223,-0.016977
1.3142,0.40122,-0.019514
1.33355,0.40595,-0.0157785
1.3593,0.40585,-0.019698
1.3651,0.40224,-0.012391
1.3749,0.40702,-0.016253
1.39595,0.40534,-0.014086
1.4675,0.40638,-0.016408
1.4912,0.40906,-0.01987
1.5005,0.40005,-0.018215
1.5116,0.40411,-0.018487
1.5226,0.40188,-0.018942
1.5388,0.40909,-0.019809
1.5443,0.40492,-0.012046
1.5582,0.40347,-0.016397
1.5775,0.4096,-0.016132
1.6529,0.40874,-0.017871
1.663,0.40562,-0.016132
1.6754,0.40318,-0.017481
1.6892,0.40608,-0.01786
1.71195,0.404195,-0.0181795
1.7347,0.40208,-0.018333
1.7422,0.40925,-0.019638
1.7758,0.40706,-0.012533
1.7878,0.40391,-0.012628
1.8186,0.40599,-0.015572
1.8226,0.40331,-0.01516
1.8385,0.401,-0.019543
1.8953,0.4005,-0.017496
1.9254,0.40424,-0.01969
1.9451,0.40604,-0.019047
1.9552,0.40161,-0.016281
1.9663,0.40227,-0.01732
2.01553,0.405577,-0.0164623
2.0726,0.406765,-0.0174065
2.1141,0.40353,-0.014921
2.1529,0.40468,-0.018158
2.1816,0.40634,-0.018011
2.1952,0.40343,-0.018472
2.2191,0.4064,-0.019802
2.2616,0.40996,-0.019181
2.2767,0.40827,-0.019702
2.2983,0.40859,-0.015177
2.3169,0.40717,-0.017547
2.3275,0.4004,-0.014835
2.3729,0.40157,-0.01505
2.4033,0.4099,-0.01849
2.4287,0.40724,-0.017027
2.5054,0.40943,-0.015596
2.5982,0.40133,-0.019249
2.6128,0.40698,-0.017407
2.7112,0.40827,-0.019457
2.7712,0.40124,-0.019555
2.8139,0.40508,-0.017853
2.9113,0.4008,-0.017301
2.94695,0.408045,-0.0181015
2.9564,0.4091,-0.018967
3.0147,0.40428,-0.012729
3.02635,0.406365,-0.011658
3.0376,0.40667,-0.017531
3.0472,0.407765,-0.015586
3.0587,0.4077,-0.016604
3.06415,0.40972,-0.0161135
3.0739,0.40551,-0.0110975
3.0824,0.4025,-0.012375
3.1023,0.40034,-0.010091
3.1206,0.40259,-0.014873
3.14755,0.40283,-0.015641
3.1698,0.4033,-0.014315
3.1804,0.40238,-0.012464
3.19257,0.40377,-0.014173
3.2061,0.40313,-0.012442
3.2127,0.40021,-0.010731
3.2345,0.40127,-0.011301
3.3487,0.40536,-0.015039
3.3517,0.40468,-0.010026
3.381,0.4031,-0.012031
3.3995,0.40031,-0.014772
3.4354,0.40849,-0.011354
3.4494,0.4026,-0.010786
3.4556,0.40212,-0.010374
3.5257,0.40747,-0.01092
3.5901,0.40645,-0.010822
3.6104,0.40354,-0.016478
3.6202,0.4066,-0.014014
0.25998,0.41956,-0.014537
0.30749,0.4148,-0.019673
0.31544,0.41209,-0.012123
0.39509,0.416885,-0.0153505
0.4071,0.41598,-0.018098
0.41487,0.41424,-0.015017
0.43847,0.41056,-0.012385
0.44671,0.41057,-0.016955
0.47964,0.41826,-0.016457
0.48756,0.41708,-0.016002
0.49509,0.41501,-0.011633
0.50367,0.41537,-0.017901
0.57495,0.41604,-0.013022
0.58299,0.41494,-0.013142
0.59205,0.41538,-0.019977
0.60758,0.41225,-0.016183
0.6158,0.41134,-0.017125
0.66482,0.417395,-0.012387
0.67828,0.41708,-0.018694
0.6949,0.41499,-0.019948
0.70301,0.41372,-0.019566
0.71072,0.412,-0.017241
0.72432,0.41896,-0.011501
0.74275,0.41844,-0.019977
0.77386,0.41157,-0.011801
0.80261,0.41972,-0.013842
0.81152,0.41888,-0.015851
0.86239,0.4112,-0.01674
0.9041,0.4195,-0.01965
0.91046,0.41655,-0.012851
0.92019,0.41594,-0.016218
0.93657,0.41255,-0.013569
0.98735,0.41394,-0.015671
1.0559,0.41299,-0.011715
1.0754,0.41068,-0.015173
1.0949,0.41632,-0.013251
1.1062,0.41589,-0.018413
1.1129,0.41299,-0.012781
1.1315,0.41845,-0.015504
1.1691,0.41193,-0.01643
1.1758,0.41887,-0.018236
1.1837,0.41639,-0.015034
1.1919,0.41411,-0.012677
1.2144,0.41837,-0.014131
1.2363,0.41602,-0.019619
1.2459,0.4142,-0.019666
1.2514,0.41798,-0.014935
1.2648,0.41033,-0.01875
1.2762,0.41976,-0.012678
1.2868,0.41822,-0.01428
1.296,0.41607,-0.013247
1.3076,0.41488,-0.01646
1.3256,0.41741,-0.017592
1.34755,0.41641,-0.0176055
1.4057,0.41971,-0.01711
1.4145,0.41699,-0.014754
1.4259,0.41522,-0.01653
1.4378,0.41362,-0.019078
1.4472,0.41103,-0.017407
1.481,0.41946,-0.013092
1.4919,0.41726,-0.013739
1.5172,0.41389,-0.019759
1.5277,0.41141,-0.019405
1.5426,0.41633,-0.01284
1.552,0.41338,-0.010766
1.5687,0.4128,-0.01913
1.5844,0.41433,-0.012688
1.5972,0.41233,-0.01525
1.6093,0.4199,-0.01953
1.6205,0.41724,-0.019599
1.6423,0.41166,-0.018768
1.6549,0.41445,-0.017691
1.66505,0.41533,-0.016933
1.7008,0.41114,-0.019562
1.71695,0.416275,-0.0132205
1.7297,0.41202,-0.01856
1.7354,0.41681,-0.017916
1.7467,0.41364,-0.017446
1.75745,0.41255,-0.0176035
1.7738,0.41989,-0.019071
1.7866,0.41301,-0.015162
1.8032,0.41518,-0.019461
1.82675,0.414155,-0.013268
1.859,0.41117,-0.018403
1.8738,0.41834,-0.017355
1.9195,0.41347,-0.018537
1.9534,0.41708,-0.018479
1.96675,0.41572,-0.016167
1.9983,0.4115,-0.019673
2.0278,0.41714,-0.011048
2.0464,0.41382,-0.0187
2.0657,0.41906,-0.014711
2.09535,0.4137,-0.018152
2.1159,0.41617,-0.015402
2.12835,0.414455,-0.0153325
2.1809,0.41066,-0.017929
2.20715,0.418135,-0.0188375
2.2654,0.416895,-0.015669
2.2877,0.41519,-0.017806
2.3044,0.415215,-0.0191155
2.3133,0.41499,-0.0166985
2.3242,0.4134,-0.01536
2.3519,0.41793,-0.016701
2.3602,0.41031,-0.012163
2.4161,0.41449,-0.017671
2.4304,0.4101,-0.017488
2.44445,0.418995,-0.0172015
2.4593,0.411855,-0.0185785
2.4831,0.413815,-0.0180485
2.5142,0.41418,-0.019005
2.5739,0.419,-0.019796
2.80405,0.41644,-0.014922
2.8375,0.41129,-0.019702
3.0174,0.41911,-0.01603
3.0256,0.41922,-0.010736
3.0609,0.41265,-0.011914
3.08505,0.414195,-0.0159115
3.0965,0.4138,-0.015764
3.1084,0.41705,-0.013756
3.112,0.41614,-0.013455
3.1216,0.41687,-0.011835
3.1452,0.4177,-0.013962
3.1583,0.41734,-0.013933
3.1704,0.41707,-0.011469
3.1956,0.41856,-0.016608
3.2037,0.41923,-0.012663
3.2135,0.41765,-0.013
3.2327,0.41679,-0.016594
3.2462,0.415025,-0.0120715
3.2617,0.41244,-0.010661
3.2717,0.41432,-0.012862
3.3874,0.41707,-0.010036
3.409,0.41677,-0.016891
3.4112,0.4143,-0.011271
3.5668,0.41149,-0.010832
3.6241,0.41929,-0.010189
0.21227,0.42562,-0.014992
0.22014,0.425,-0.016622
0.31194,0.42723,-0.013484
0.33573,0.42544,-0.01899
0.34361,0.42331,-0.014267
0.355545,0.4226,-0.017824
0.42371,0.42446,-0.010915
0.43569,0.42323,-0.0125175
0.44803,0.42312,-0.018909
0.49531,0.42764,-0.014758
0.51893,0.42368,-0.012178
0.53577,0.42318,-0.019638
0.54345,0.42145,-0.017029
0.60418,0.42614,-0.012207
0.6135,0.42678,-0.019907
0.64499,0.42089,-0.014787
0.65361,0.42034,-0.017496
0.68483,0.42669,-0.018205
0.71792,0.42207,-0.019573
0.76933,0.42492,-0.013906
0.77673,0.42281,-0.010403
0.8436,0.42849,-0.016988
0.86869,0.42413,-0.015833
0.913715,0.42646,-0.016503
0.94463,0.42186,-0.018409
0.98452,0.42491,-0.010626
0.9934,0.42347,-0.010908
1.0047,0.42351,-0.017535
1.0219,0.42012,-0.016054
1.0335,0.4284,-0.01719
1.04615,0.42562,-0.0154755
1.0746,0.42719,-0.010512
1.0848,0.42617,-0.013105
1.1122,0.4213,-0.013429
1.1291,0.42734,-0.017706
1.1485,0.42438,-0.019651
1.1572,0.42235,-0.018337
1.1669,0.423935,-0.016152
1.1779,0.42609,-0.016585
1.1883,0.4248,-0.018678
1.206,0.4283,-0.019546
1.2243,0.4243,-0.018181
1.2596,0.42479,-0.01798
1.2675,0.42208,-0.014483
1.2858,0.42513,-0.016745
1.2941,0.42252,-0.014022
1.3047,0.42091,-0.015552
1.3266,0.42226,-0.01225
1.393,0.4242,-0.0124475
1.4074,0.42698,-0.019141
1.4602,0.42419,-0.013281
1.5045,0.42778,-0.019856
1.5122,0.42432,-0.015519
1.5249,0.42257,-0.018479
1.5351,0.42879,-0.019936
1.5631,0.42969,-0.016246
1.5753,0.42752,-0.018165
1.5847,0.42438,-0.016007
1.593,0.42085,-0.012203
1.6001,0.42851,-0.01912
1.6107,0.42564,-0.018471
1.65445,0.42509,-0.0143165
1.6956,0.42907,-0.013942
1.7299,0.42941,-0.017727
1.748,0.42567,-0.016235
1.7544,0.42348,-0.019187
1.7995,0.42844,-0.019361
1.8183,0.422965,-0.0150045
1.8679,0.42767,-0.015926
1.87915,0.426355,-0.016072
1.89185,0.42276,-0.016601
1.9272,0.4246,-0.017157
1.95675,0.425875,-0.017569
2.0218,0.42315,-0.018178
2.0368,0.42485,-0.016074
2.0502,0.42296,-0.011959
2.0817,0.4278,-0.012441
2.093,0.42652,-0.018623
2.10395,0.42323,-0.0192435
2.1531,0.4207,-0.016633
2.1655,0.4275,-0.019593
2.1812,0.42714,-0.019573
2.218,0.42616,-0.016029
2.2316,0.42061,-0.016258
2.2477,0.42199,-0.0151
2.2992,0.42896,-0.013864
2.3008,0.42661,-0.018478
2.3407,0.42491,-0.018571
2.40465,0.423265,-0.0187325
2.43345,0.426825,-0.0189515
2.4562,0.42732,-0.015425
2.4791,0.42513,-0.015188
2.4822,0.42712,-0.01582
2.4999,0.42015,-0.019868
2.5903,0.42537,-0.018849
2.7945,0.42784,-0.016874
2.8383,0.42466,-0.019067
2.84565,0.42649,-0.015665
2.859,0.42927,-0.01896
2.9007,0.42698,-0.019362
2.9539,0.42403,-0.017257
3.033,0.421415,-0.0166245
3.0534,0.422395,-0.0165355
3.0653,0.42445,-0.0172985
3.0796,0.42569,-0.017028
3.0956,0.427967,-0.0155333
3.2641,0.42963,-0.016103
3.4298,0.42943,-0.011489
3.5182,0.42992,-0.010829
3.5514,0.42237,-0.01281
3.598,0.42678,-0.014923
3.6146,0.42325,-0.013284
0.22436,0.43971,-0.018244
0.244305,0.43713,-0.018274
0.28808,0.43148,-0.018378
0.32884,0.43795,-0.013786
0.33675,0.43646,-0.012033
0.37653,0.43285,-0.01928
0.41607,0.43978,-0.0189
0.44783,0.43511,-0.018038
0.45562,0.43346,-0.015798
0.475555,0.4308,-0.01635
0.53187,0.43619,-0.010546
0.54475,0.436195,-0.0177685
0.55683,0.43454,-0.018163
0.5645,0.43274,-0.015487
0.60367,0.439,-0.018496
0.61081,0.4364,-0.012769
0.6276,0.43488,-0.016573
0.65097,0.43,-0.01147
0.69499,0.43615,-0.012613
0.70309,0.43479,-0.012268
0.80018,0.43404,-0.011896
0.85899,0.43635,-0.01912
0.86775,0.43513,-0.019969
0.87566,0.43324,-0.017984
0.92518,0.43638,-0.014884
0.94285,0.43367,-0.015964
0.95171,0.43229,-0.016443
0.96058,0.4309,-0.01688
0.97133,0.43915,-0.016398
0.99015,0.43687,-0.019832
1.0077,0.43365,-0.019441
1.0145,0.435385,-0.015292
1.0249,0.43016,-0.01798
1.0679,0.43012,-0.015977
1.0745,0.43753,-0.017933
1.091,0.43327,-0.014144
1.10235,0.436055,-0.0162565
1.1115,0.43749,-0.012967
1.1209,0.43591,-0.013621
1.1834,0.43015,-0.011936
1.1964,0.43007,-0.019284
1.2024,0.43605,-0.018085
1.215,0.432515,-0.014935
1.2389,0.43547,-0.019361
1.2472,0.43294,-0.016844
1.2564,0.43081,-0.016024
1.3167,0.43936,-0.019352
1.325,0.43659,-0.01655
1.3367,0.43525,-0.019671
1.3416,0.43103,-0.010835
1.3642,0.43468,-0.014535
1.3843,0.43028,-0.014425
1.4208,0.43415,-0.016357
1.43335,0.435865,-0.0133945
1.4491,0.43871,-0.015354
1.4803,0.43153,-0.015268
1.49385,0.43609,-0.013867
1.5183,0.43938,-0.013608
1.5219,0.43042,-0.016189
1.5304,0.43734,-0.015777
1.5773,0.43359,-0.017844
1.5895,0.43135,-0.019714
1.5975,0.436,-0.016823
1.6232,0.43709,-0.012908
1.6384,0.43879,-0.010042
1.6643,0.436515,-0.016102
1.7026,0.43426,-0.012118
1.7174,0.43223,-0.01651
1.733,0.439,-0.018328
1.7455,0.43605,-0.01952
1.7538,0.43179,-0.015273
1.7623,0.4379,-0.017175
1.7828,0.43599,-0.016888
1.79825,0.436135,-0.0172545
1.8099,0.43509,-0.013026
1.8464,0.43569,-0.019064
1.8585,0.43205,-0.019017
1.8865,0.43511,-0.01278
1.9081,0.43894,-0.017006
1.9202,0.43495,-0.01676
1.9442,0.43302,-0.01917
1.9693,0.43978,-0.016025
1.98235,0.435365,-0.018313
1.9936,0.432665,-0.0153175
2.0145,0.43705,-0.014624
2.0347,0.432887,-0.014734
2.0483,0.43917,-0.012369
2.0723,0.43344,-0.015994
2.0808,0.43147,-0.019437
2.1044,0.43697,-0.019848
2.1641,0.43154,-0.01575
2.1817,0.43117,-0.019603
2.2088,0.43264,-0.019806
2.2257,0.43455,-0.019253
2.2465,0.43651,-0.014131
2.2857,0.43512,-0.013625
2.3063,0.43396,-0.01534
2.3115,0.43978,-0.015891
2.3278,0.43398,-0.018818
2.3338,0.43809,-0.0187
2.3465,0.43135,-0.018286
2.3778,0.4386,-0.017439
2.3934,0.43207,-0.01966
2.4189,0.43298,-0.017213
2.467,0.4379,-0.017574
2.6281,0.43069,-0.0198
2.6441,0.43952,-0.013202
2.8279,0.43788,-0.016943
2.9399,0.43504,-0.013822
2.95,0.43751,-0.017851
3.0168,0.43344,-0.017094
3.02445,0.43493,-0.0130575
3.0349,0.43465,-0.010945
3.0488,0.4372,-0.01708
3.0524,0.43576,-0.013841
3.0601,0.43825,-0.01809
3.11185,0.431005,-0.011285
3.153,0.43304,-0.014695
3.1655,0.43251,-0.013892
3.1992,0.43364,-0.0137495
3.206,0.43328,-0.013517
3.2267,0.433185,-0.0134005
3.2382,0.43137,-0.013694
3.2446,0.43272,-0.012094
3.3599,0.43875,-0.013371
3.38435,0.43424,-0.0100585
3.4117,0.43261,-0.010044
3.4226,0.43318,-0.015306
3.4919,0.4324,-0.012239
3.5043,0.43261,-0.014947
3.5745,0.43707,-0.013119
3.6346,0.43984,-0.013433
0.28915,0.44389,-0.016212
0.30502,0.44239,-0.018842
0.34446,0.44883,-0.014966
0.40005,0.44135,-0.016214
0.44461,0.44958,-0.013436
0.48493,0.44531,-0.01949
0.49251,0.44309,-0.015182
0.50866,0.44125,-0.017101
0.52247,0.44935,-0.011422
0.55523,0.44605,-0.017563
0.56329,0.4449,-0.017805
0.57873,0.44139,-0.013377
0.64678,0.44455,-0.015857
0.72671,0.44715,-0.016383
0.73528,0.44617,-0.017816
0.75225,0.44395,-0.019622
0.7996,0.44584,-0.017701
0.80751,0.44403,-0.016006
0.82331,0.44038,-0.012514
0.924655,0.448395,-0.019635
0.95488,0.44292,-0.019214
0.98806,0.44476,-0.016515
0.99767,0.44369,-0.018645
1.0063,0.44193,-0.017998
1.0347,0.44541,-0.019576
1.0575,0.44472,-0.0170815
1.0683,0.44732,-0.018009
1.1037,0.44808,-0.019485
1.1128,0.44627,-0.019306
1.125,0.442755,-0.01584
1.1361,0.44833,-0.015959
1.1404,0.44095,-0.019403
