5.11,1.49,1.23895
5.13,1.49,1.23695
5.15,1.49,1.23825
5.17,1.49,1.23307
5.19,1.49,1.23797
5.21,1.49,1.23876
5.23,1.49,1.23312
3.59,1.51,1.23999
3.61,1.51,1.23896
3.63,1.51,1.23765
3.65,1.51,1.23694
3.67,1.51,1.23697
3.69,1.51,1.23695
3.71,1.51,1.23646
3.73,1.51,1.23842
5.11,1.51,1.23906
5.17,1.51,1.23591
5.19,1.51,1.23541
5.21,1.51,1.2377
5.23,1.51,1.23368
3.61,1.53,1.23996
3.63,1.53,1.23924
3.65,1.53,1.23829
3.67,1.53,1.2378
3.69,1.53,1.23754
3.71,1.53,1.23668
3.73,1.53,1.23593
3.75,1.53,1.23577
3.77,1.53,1.23977
5.13,1.53,1.23825
5.17,1.53,1.23428
5.19,1.53,1.23546
5.21,1.53,1.23642
3.67,1.55,1.2393
3.69,1.55,1.23854
3.71,1.55,1.2379
3.73,1.55,1.23705
3.75,1.55,1.23623
3.77,1.55,1.23587
3.79,1.55,1.2388
5.17,1.55,1.23022
5.19,1.55,1.23666
5.21,1.55,1.23598
3.69,1.57,1.23996
3.71,1.57,1.2391
3.73,1.57,1.23834
3.75,1.57,1.23757
3.77,1.57,1.23664
3.79,1.57,1.23546
3.81,1.57,1.23676
5.17,1.57,1.23639
5.19,1.57,1.23831
5.23,1.57,1.23426
3.73,1.59,1.23957
3.75,1.59,1.23909
3.77,1.59,1.2375
3.79,1.59,1.23614
3.81,1.59,1.23532
3.83,1.59,1.23632
3.85,1.59,1.23915
5.13,1.59,1.23964
5.17,1.59,1.23834
5.19,1.59,1.2388
5.23,1.59,1.2329
3.75,1.61,1.2398
3.77,1.61,1.23845
3.79,1.61,1.23719
3.81,1.61,1.23624
3.83,1.61,1.23606
3.85,1.61,1.2353
3.87,1.61,1.2368
3.89,1.61,1.23989
5.13,1.61,1.23686
5.17,1.61,1.23872
5.19,1.61,1.23921
5.21,1.61,1.23018
5.23,1.61,1.23117
3.75,1.63,1.23962
3.77,1.63,1.23929
3.79,1.63,1.23786
3.81,1.63,1.2373
3.83,1.63,1.23685
3.85,1.63,1.23614
3.87,1.63,1.23507
3.89,1.63,1.23506
3.91,1.63,1.23899
5.13,1.63,1.23893
5.21,1.63,1.2329
5.23,1.63,1.23489
3.79,1.65,1.23902
3.81,1.65,1.23806
3.83,1.65,1.23828
3.85,1.65,1.23653
3.87,1.65,1.23574
3.89,1.65,1.23549
3.91,1.65,1.23584
3.93,1.65,1.23758
5.19,1.65,1.23189
5.21,1.65,1.23521
5.23,1.65,1.2361
3.79,1.67,1.23997
3.81,1.67,1.23869
3.83,1.67,1.23896
3.85,1.67,1.23719
3.87,1.67,1.23632
3.89,1.67,1.23687
3.91,1.67,1.23595
3.93,1.67,1.23527
3.95,1.67,1.23754
5.03,1.67,1.23979
5.07,1.67,1.23978
5.09,1.67,1.23962
5.15,1.67,1.23544
5.17,1.67,1.23985
5.19,1.67,1.2349
5.21,1.67,1.23509
5.23,1.67,1.23724
3.81,1.69,1.23882
3.83,1.69,1.23845
3.85,1.69,1.23832
3.87,1.69,1.23706
3.89,1.69,1.23815
3.91,1.69,1.23628
3.93,1.69,1.23593
3.95,1.69,1.23622
3.97,1.69,1.23842
5.03,1.69,1.23674
5.09,1.69,1.23645
5.11,1.69,1.23856
5.13,1.69,1.2374
5.15,1.69,1.23657
5.17,1.69,1.23794
5.19,1.69,1.23188
5.23,1.69,1.23453
3.83,1.71,1.23882
3.85,1.71,1.23885
3.87,1.71,1.2377
3.89,1.71,1.23792
3.91,1.71,1.2367
3.93,1.71,1.2366
3.95,1.71,1.23709
3.97,1.71,1.23802
3.99,1.71,1.23951
4.89,1.71,1.23684
4.93,1.71,1.23723
4.97,1.71,1.23988
5.01,1.71,1.23994
5.07,1.71,1.23884
5.09,1.71,1.23537
5.11,1.71,1.23601
5.13,1.71,1.23453
5.15,1.71,1.23673
5.17,1.71,1.23568
5.19,1.71,1.23494
5.21,1.71,1.23505
5.23,1.71,1.23543
3.87,1.73,1.23799
3.89,1.73,1.23815
3.91,1.73,1.2387
3.93,1.73,1.23743
3.95,1.73,1.23812
4.89,1.73,1.23943
4.93,1.73,1.23184
4.95,1.73,1.23948
4.97,1.73,1.23546
4.99,1.73,1.23856
5.01,1.73,1.2352
5.03,1.73,1.23773
5.05,1.73,1.2351
5.07,1.73,1.23607
5.09,1.73,1.23559
5.11,1.73,1.23728
5.13,1.73,1.23253
5.15,1.73,1.2333
5.17,1.73,1.23555
5.21,1.73,1.23622
5.23,1.73,1.23273
3.89,1.75,1.23856
3.91,1.75,1.23966
3.93,1.75,1.23866
3.95,1.75,1.23855
4.67,1.75,1.23765
4.69,1.75,1.23701
4.71,1.75,1.23955
4.89,1.75,1.23972
4.93,1.75,1.23446
4.95,1.75,1.23892
4.97,1.75,1.23126
4.99,1.75,1.23724
5.01,1.75,1.23425
5.03,1.75,1.23557
5.05,1.75,1.23315
5.07,1.75,1.2352
5.09,1.75,1.23597
5.13,1.75,1.23509
5.15,1.75,1.23201
5.17,1.75,1.23161
5.21,1.75,1.23224
5.23,1.75,1.23144
3.91,1.77,1.23968
4.67,1.77,1.23883
4.69,1.77,1.23639
4.71,1.77,1.23742
4.89,1.77,1.23971
4.91,1.77,1.23997
4.93,1.77,1.2358
4.95,1.77,1.23768
4.97,1.77,1.23003
4.99,1.77,1.2352
5.01,1.77,1.23326
5.03,1.77,1.23438
5.05,1.77,1.23115
5.07,1.77,1.23385
5.09,1.77,1.23298
5.13,1.77,1.23396
5.15,1.77,1.23296
5.21,1.77,1.23145
4.69,1.79,1.23971
4.71,1.79,1.23755
4.73,1.79,1.23457
4.75,1.79,1.2363
4.77,1.79,1.23638
4.81,1.79,1.23916
4.91,1.79,1.23788
4.93,1.79,1.23866
4.95,1.79,1.23514
4.97,1.79,1.23323
4.99,1.79,1.23576
5.01,1.79,1.23515
5.03,1.79,1.23424
5.05,1.79,1.23232
5.07,1.79,1.2311
5.11,1.79,1.23225
5.15,1.79,1.23038
5.21,1.79,1.23186
4.73,1.81,1.23645
4.75,1.81,1.23483
4.77,1.81,1.23375
4.79,1.81,1.23312
4.81,1.81,1.23062
4.83,1.81,1.23649
4.87,1.81,1.23938
4.91,1.81,1.2376
4.93,1.81,1.23825
4.95,1.81,1.23359
4.97,1.81,1.23624
4.99,1.81,1.23561
5.01,1.81,1.23915
5.03,1.81,1.23517
5.05,1.81,1.23377
5.15,1.81,1.23007
4.75,1.83,1.23605
4.77,1.83,1.23455
4.79,1.83,1.23326
4.81,1.83,1.23141
4.83,1.83,1.23224
4.85,1.83,1.23017
4.87,1.83,1.23382
4.89,1.83,1.23844
4.91,1.83,1.23872
4.93,1.83,1.23661
4.95,1.83,1.2345
4.97,1.83,1.23633
4.99,1.83,1.2339
5.03,1.83,1.2335
5.05,1.83,1.23215
5.09,1.83,1.23079
5.11,1.83,1.23039
5.13,1.83,1.23718
5.15,1.83,1.23072
5.19,1.83,1.23525
4.77,1.85,1.23846
4.79,1.85,1.23505
4.81,1.85,1.2318
4.83,1.85,1.23191
4.89,1.85,1.23082
4.91,1.85,1.23544
4.93,1.85,1.23283
4.95,1.85,1.23658
4.97,1.85,1.23582
4.99,1.85,1.23861
5.01,1.85,1.23424
5.03,1.85,1.23934
5.05,1.85,1.23208
5.07,1.85,1.23266
5.09,1.85,1.23224
5.11,1.85,1.23303
5.13,1.85,1.23827
5.19,1.85,1.23434
4.79,1.87,1.23852
4.81,1.87,1.2343
4.83,1.87,1.23202
4.95,1.87,1.23662
4.97,1.87,1.23936
4.99,1.87,1.2364
5.01,1.87,1.2363
5.03,1.87,1.23654
5.05,1.87,1.23635
5.07,1.87,1.23248
5.09,1.87,1.23336
5.11,1.87,1.23818
5.13,1.87,1.23245
5.17,1.87,1.23177
4.81,1.89,1.23814
4.83,1.89,1.2358
4.85,1.89,1.23389
4.87,1.89,1.23059
4.97,1.89,1.23615
4.99,1.89,1.23415
5.03,1.89,1.23788
5.05,1.89,1.23991
5.07,1.89,1.23518
5.09,1.89,1.23494
5.11,1.89,1.23179
5.13,1.89,1.23167
5.15,1.89,1.23333
5.17,1.89,1.2361
4.85,1.91,1.23662
4.87,1.91,1.23316
4.99,1.91,1.23017
5.05,1.91,1.23414
5.07,1.91,1.23725
5.09,1.91,1.23558
5.11,1.91,1.237
5.13,1.91,1.23992
5.15,1.91,1.23148
5.17,1.91,1.23226
4.87,1.93,1.23615
4.89,1.93,1.23372
4.91,1.93,1.23409
5.05,1.93,1.23049
5.09,1.93,1.23844
5.15,1.93,1.23818
4.89,1.95,1.23872
4.91,1.95,1.23486
5.07,1.95,1.23106
5.11,1.95,1.23917
5.19,1.95,1.23625
5.21,1.95,1.23123
4.91,1.97,1.23656
4.93,1.97,1.23081
5.11,1.97,1.23883
5.19,1.97,1.23764
5.21,1.97,1.23736
4.93,1.99,1.23682
4.95,1.99,1.23146
4.97,1.99,1.23129
5.19,1.99,1.23938
5.21,1.99,1.23861
5.23,1.99,1.23883
4.95,2.01,1.23966
4.97,2.01,1.23725
4.99,2.01,1.231
5.19,2.01,1.23829
5.21,2.01,1.23293
5.21,2.03,1.23258
5.03,2.05,1.23968
3.81,-0.23,1.24795
3.83,-0.23,1.24815
3.85,-0.23,1.24876
3.87,-0.23,1.24814
3.89,-0.23,1.24735
3.79,-0.21,1.24499
3.81,-0.21,1.2443
3.83,-0.21,1.2446
3.85,-0.21,1.24324
3.87,-0.21,1.24193
3.89,-0.21,1.24138
3.91,-0.21,1.24151
3.75,-0.19,1.24413
3.77,-0.19,1.24282
3.79,-0.19,1.24109
3.81,-0.19,1.24063
3.73,-0.17,1.24246
3.75,-0.17,1.24174
3.71,-0.15,1.2415
3.93,-0.15,1.24912
3.67,-0.13,1.24215
3.69,-0.13,1.24094
3.93,-0.13,1.24191
3.63,-0.11,1.24314
3.65,-0.11,1.24214
3.93,-0.11,1.24496
3.61,-0.09,1.24294
3.63,-0.09,1.24098
3.91,-0.09,1.24025
3.57,-0.07,1.24496
3.59,-0.07,1.24352
3.61,-0.07,1.24081
3.91,-0.07,1.2458
3.93,-0.07,1.2497
3.55,-0.05,1.2445
3.57,-0.05,1.24274
3.59,-0.05,1.24033
3.87,-0.05,1.2408
3.89,-0.05,1.24354
3.91,-0.05,1.24523
3.93,-0.05,1.2458
3.95,-0.05,1.24754
3.53,-0.03,1.24401
3.55,-0.03,1.24232
3.85,-0.03,1.24204
3.87,-0.03,1.24287
3.89,-0.03,1.24286
3.91,-0.03,1.24317
3.93,-0.03,1.24413
3.95,-0.03,1.24574
3.97,-0.03,1.24837
3.51,-0.01,1.2431
3.53,-0.01,1.24087
3.83,-0.01,1.24286
3.85,-0.01,1.24333
3.87,-0.01,1.24269
3.89,-0.01,1.24219
3.91,-0.01,1.24321
3.93,-0.01,1.24456
3.95,-0.01,1.2466
3.79,0.01,1.24328
3.81,0.01,1.24428
3.83,0.01,1.24358
3.85,0.01,1.24301
3.87,0.01,1.24315
3.89,0.01,1.24311
3.91,0.01,1.24429
3.93,0.01,1.24739
3.75,0.03,1.24321
3.77,0.03,1.24537
3.79,0.03,1.24503
3.81,0.03,1.24439
3.83,0.03,1.24371
3.85,0.03,1.24405
3.87,0.03,1.24394
3.89,0.03,1.24455
3.91,0.03,1.24736
3.71,0.05,1.24095
3.73,0.05,1.2457
3.75,0.05,1.2477
3.77,0.05,1.24617
3.79,0.05,1.24452
3.81,0.05,1.24423
3.83,0.05,1.24516
3.85,0.05,1.24516
3.87,0.05,1.24653
3.89,0.05,1.24849
3.67,0.07,1.24185
3.69,0.07,1.246
3.71,0.07,1.24877
3.73,0.07,1.24887
3.75,0.07,1.24757
3.77,0.07,1.24541
3.79,0.07,1.24508
3.81,0.07,1.2462
3.83,0.07,1.24627
3.85,0.07,1.24782
3.61,0.09,1.24061
3.63,0.09,1.243
3.65,0.09,1.24638
3.67,0.09,1.24983
3.73,0.09,1.24917
3.75,0.09,1.24799
3.77,0.09,1.2467
3.79,0.09,1.24812
3.81,0.09,1.24811
3.83,0.09,1.24924
3.57,0.11,1.24032
3.61,0.11,1.24409
3.55,0.13,1.24069
3.57,0.13,1.2421
3.59,0.13,1.24372
3.53,0.15,1.24003
3.55,0.15,1.24382
3.57,0.15,1.24926
5.01,0.15,1.24927
5.03,0.15,1.24873
5.05,0.15,1.24715
5.07,0.15,1.24868
5.09,0.15,1.24932
5.11,0.15,1.24887
5.13,0.15,1.24925
5.17,0.15,1.24886
5.19,0.15,1.24948
5.21,0.15,1.24684
3.53,0.17,1.24303
3.55,0.17,1.24975
4.97,0.17,1.24913
4.99,0.17,1.24743
5.01,0.17,1.24555
5.03,0.17,1.2443
5.05,0.17,1.24319
5.07,0.17,1.2446
5.09,0.17,1.24248
5.11,0.17,1.24328
5.13,0.17,1.24507
5.15,0.17,1.24384
5.17,0.17,1.24148
5.19,0.17,1.24517
5.21,0.17,1.24251
5.23,0.17,1.24279
3.49,0.19,1.24006
3.51,0.19,1.24761
3.59,0.19,1.24946
3.61,0.19,1.24892
4.85,0.19,1.24892
4.87,0.19,1.24964
4.89,0.19,1.24911
4.91,0.19,1.24802
4.93,0.19,1.24826
4.95,0.19,1.24639
4.97,0.19,1.2448
4.99,0.19,1.2428
5.01,0.19,1.24153
5.03,0.19,1.24182
5.05,0.19,1.24138
5.07,0.19,1.24171
5.11,0.19,1.24105
5.13,0.19,1.24218
5.17,0.19,1.24285
5.19,0.19,1.24287
5.21,0.19,1.24081
3.49,0.21,1.2483
3.55,0.21,1.24983
3.57,0.21,1.2489
3.59,0.21,1.24771
3.61,0.21,1.2481
4.85,0.21,1.24894
4.87,0.21,1.24706
4.89,0.21,1.24569
4.91,0.21,1.24408
4.93,0.21,1.24525
4.95,0.21,1.2425
4.97,0.21,1.24146
5.03,0.21,1.2401
5.05,0.21,1.24006
5.17,0.21,1.24174
5.19,0.21,1.24075
3.55,0.23,1.24904
3.57,0.23,1.24842
3.59,0.23,1.24827
4.83,0.23,1.24808
4.85,0.23,1.24627
4.87,0.23,1.24439
4.89,0.23,1.24392
4.91,0.23,1.24129
4.93,0.23,1.24301
4.99,0.23,1.24029
3.47,0.25,1.24936
3.55,0.25,1.24964
3.57,0.25,1.24972
4.83,0.25,1.24721
4.85,0.25,1.24507
4.87,0.25,1.24295
4.89,0.25,1.24269
4.91,0.25,1.24123
4.93,0.25,1.2414
3.45,0.27,1.2496
4.83,0.27,1.24825
4.85,0.27,1.24415
4.87,0.27,1.24459
4.89,0.27,1.24331
4.91,0.27,1.24184
4.93,0.27,1.24151
4.95,0.27,1.24139
4.97,0.27,1.24136
4.99,0.27,1.24014
3.45,0.29,1.24884
4.81,0.29,1.24994
4.83,0.29,1.2499
4.85,0.29,1.246
4.87,0.29,1.24636
4.89,0.29,1.24431
4.91,0.29,1.24364
4.93,0.29,1.24323
4.95,0.29,1.24322
4.97,0.29,1.2428
4.99,0.29,1.24056
5.07,0.29,1.24074
3.45,0.31,1.24951
4.85,0.31,1.24917
4.87,0.31,1.24738
4.89,0.31,1.24686
4.91,0.31,1.24555
4.93,0.31,1.24468
4.95,0.31,1.2447
4.97,0.31,1.24249
4.99,0.31,1.24094
3.43,0.33,1.24468
4.85,0.33,1.24965
4.87,0.33,1.24791
4.89,0.33,1.24902
4.91,0.33,1.24722
4.93,0.33,1.24502
4.95,0.33,1.2448
4.97,0.33,1.24331
4.99,0.33,1.24294
5.03,0.33,1.24
3.43,0.35,1.24612
4.91,0.35,1.24888
4.93,0.35,1.24677
4.95,0.35,1.24659
4.97,0.35,1.24384
4.99,0.35,1.24483
5.01,0.35,1.24299
5.03,0.35,1.24118
5.05,0.35,1.2409
5.07,0.35,1.24142
5.09,0.35,1.24307
3.43,0.37,1.24702
4.93,0.37,1.24953
4.95,0.37,1.24885
4.97,0.37,1.24594
4.99,0.37,1.24642
5.01,0.37,1.24603
5.03,0.37,1.24321
5.05,0.37,1.24228
5.07,0.37,1.24322
5.09,0.37,1.24342
5.11,0.37,1.24238
5.13,0.37,1.24161
5.15,0.37,1.24211
5.17,0.37,1.24016
5.21,0.37,1.24021
5.23,0.37,1.2438
4.93,0.39,1.2496
4.97,0.39,1.24971
4.99,0.39,1.249
5.01,0.39,1.24846
5.03,0.39,1.2443
5.05,0.39,1.24548
5.07,0.39,1.24556
5.09,0.39,1.24565
5.11,0.39,1.24431
5.13,0.39,1.24329
5.15,0.39,1.24498
5.17,0.39,1.24354
5.19,0.39,1.24206
5.21,0.39,1.24506
5.23,0.39,1.24414
5.01,0.41,1.24946
5.11,0.41,1.2487
5.13,0.41,1.24694
5.15,0.41,1.24929
5.17,0.41,1.24707
5.19,0.41,1.24583
5.21,0.41,1.24702
5.23,0.41,1.24011
5.21,0.43,1.24587
5.23,0.43,1.24569
5.11,0.45,1.24983
5.21,0.45,1.24798
5.15,0.47,1.24879
5.21,0.47,1.24979
5.13,0.49,1.2496
5.19,0.49,1.24853
5.21,0.49,1.24986
5.23,0.49,1.24946
3.41,0.51,1.24082
5.13,0.51,1.24515
5.17,0.51,1.2486
5.19,0.51,1.24765
5.21,0.51,1.24947
5.23,0.51,1.24741
5.13,0.53,1.24386
5.15,0.53,1.24932
5.19,0.53,1.24592
5.21,0.53,1.24847
5.23,0.53,1.24655
5.13,0.55,1.24142
5.15,0.55,1.24696
5.17,0.55,1.24851
5.19,0.55,1.24329
5.21,0.55,1.24754
5.23,0.55,1.24915
5.07,0.57,1.2494
5.09,0.57,1.24674
5.13,0.57,1.24347
5.15,0.57,1.24354
5.17,0.57,1.2474
5.21,0.57,1.24524
5.23,0.57,1.24852
5.03,0.59,1.2491
5.07,0.59,1.24808
5.09,0.59,1.24848
5.11,0.59,1.24932
5.13,0.59,1.24382
5.15,0.59,1.24387
5.17,0.59,1.2461
5.21,0.59,1.244
5.23,0.59,1.24618
5.03,0.61,1.24955
5.07,0.61,1.24992
5.09,0.61,1.24981
5.11,0.61,1.24783
5.13,0.61,1.24412
5.15,0.61,1.24817
5.17,0.61,1.24513
5.19,0.61,1.24186
5.21,0.61,1.24621
5.23,0.61,1.24792
5.11,0.63,1.24792
5.13,0.63,1.24628
5.15,0.63,1.2498
5.17,0.63,1.24531
5.19,0.63,1.24373
5.21,0.63,1.24721
5.23,0.63,1.24814
5.11,0.65,1.24845
5.13,0.65,1.24761
5.19,0.65,1.24708
5.21,0.65,1.24845
5.23,0.65,1.24327
5.11,0.67,1.2492
5.13,0.67,1.24808
5.17,0.67,1.24606
5.19,0.67,1.24931
5.21,0.67,1.2479
5.23,0.67,1.24383
5.17,0.69,1.24471
5.19,0.69,1.24949
5.21,0.69,1.24632
5.23,0.69,1.24516
5.03,0.71,1.24959
5.07,0.71,1.24881
5.11,0.71,1.24745
5.15,0.71,1.24887
5.17,0.71,1.24754
5.19,0.71,1.24575
5.21,0.71,1.24618
5.23,0.71,1.24698
5.11,0.73,1.24707
5.15,0.73,1.24745
5.17,0.73,1.24718
5.19,0.73,1.24673
5.21,0.73,1.24708
5.23,0.73,1.24953
5.13,0.75,1.2498
5.15,0.75,1.24957
5.17,0.75,1.24779
5.19,0.75,1.24855
5.13,0.77,1.24896
5.17,0.77,1.24797
5.19,0.77,1.24722
5.23,0.77,1.24816
5.13,0.79,1.24788
5.17,0.79,1.24722
5.19,0.79,1.24495
5.21,0.79,1.24859
5.23,0.79,1.248
5.09,0.81,1.24954
5.13,0.81,1.24769
5.15,0.81,1.24903
5.17,0.81,1.2475
5.19,0.81,1.24566
5.21,0.81,1.24724
5.11,0.83,1.24906
5.13,0.83,1.2491
5.15,0.83,1.24708
5.17,0.83,1.24389
5.19,0.83,1.24571
5.21,0.83,1.24707
5.11,0.85,1.24875
5.13,0.85,1.24931
5.15,0.85,1.2468
5.17,0.85,1.24326
5.19,0.85,1.24731
5.21,0.85,1.24642
5.11,0.87,1.24742
5.13,0.87,1.24817
5.15,0.87,1.24481
5.17,0.87,1.24654
5.19,0.87,1.24741
5.21,0.87,1.24324
5.11,0.89,1.24796
5.13,0.89,1.24827
5.17,0.89,1.24674
5.19,0.89,1.24646
5.21,0.89,1.24361
5.23,0.89,1.24802
5.01,0.91,1.24919
5.09,0.91,1.24909
5.11,0.91,1.2493
5.13,0.91,1.24506
5.15,0.91,1.24779
5.17,0.91,1.24419
5.19,0.91,1.2457
5.21,0.91,1.24549
5.23,0.91,1.24219
5.01,0.93,1.24873
5.05,0.93,1.24655
5.09,0.93,1.24596
5.11,0.93,1.24949
5.13,0.93,1.24333
5.15,0.93,1.24693
5.17,0.93,1.24366
5.19,0.93,1.24565
5.21,0.93,1.24499
5.23,0.93,1.24117
5.05,0.95,1.24869
5.09,0.95,1.24728
5.11,0.95,1.24899
5.13,0.95,1.24573
5.15,0.95,1.24751
5.17,0.95,1.24648
5.19,0.95,1.24444
5.21,0.95,1.24219
5.23,0.95,1.2416
5.09,0.97,1.24949
5.11,0.97,1.24942
5.13,0.97,1.24562
5.15,0.97,1.24888
5.19,0.97,1.24441
5.21,0.97,1.24267
5.23,0.97,1.24062
5.05,0.99,1.24999
5.09,0.99,1.24814
5.11,0.99,1.24696
5.13,0.99,1.24547
5.15,0.99,1.248
5.17,0.99,1.24531
5.19,0.99,1.24309
5.21,0.99,1.2444
4.97,1.01,1.24987
5.01,1.01,1.24678
5.05,1.01,1.24649
5.07,1.01,1.24889
5.09,1.01,1.24664
5.11,1.01,1.2465
5.13,1.01,1.24591
5.15,1.01,1.24764
5.17,1.01,1.24137
5.19,1.01,1.24469
5.21,1.01,1.24138
4.97,1.03,1.24902
5.01,1.03,1.24611
5.03,1.03,1.24912
5.05,1.03,1.2449
5.07,1.03,1.24878
5.09,1.03,1.24793
5.11,1.03,1.24882
5.13,1.03,1.24577
5.15,1.03,1.24129
5.17,1.03,1.24095
5.19,1.03,1.2424
5.23,1.03,1.2424
4.93,1.05,1.24985
4.97,1.05,1.24911
4.99,1.05,1.24952
5.01,1.05,1.24673
5.03,1.05,1.24903
5.05,1.05,1.2481
5.07,1.05,1.24633
5.09,1.05,1.24724
5.11,1.05,1.24413
5.13,1.05,1.24538
5.15,1.05,1.2401
5.17,1.05,1.24232
5.19,1.05,1.24231
5.23,1.05,1.24549
4.93,1.07,1.24971
4.97,1.07,1.24859
4.99,1.07,1.24998
5.01,1.07,1.24831
5.03,1.07,1.24503
5.05,1.07,1.24794
5.07,1.07,1.24467
5.09,1.07,1.24565
5.11,1.07,1.24164
5.13,1.07,1.24474
5.19,1.07,1.24177
5.23,1.07,1.24302
4.97,1.09,1.24814
4.99,1.09,1.24897
5.01,1.09,1.24866
5.03,1.09,1.24493
5.05,1.09,1.24666
5.07,1.09,1.24361
5.09,1.09,1.24515
5.13,1.09,1.24321
5.17,1.09,1.24057
5.23,1.09,1.24153
4.95,1.11,1.24965
4.97,1.11,1.24983
4.99,1.11,1.24702
5.01,1.11,1.24677
5.03,1.11,1.24556
5.05,1.11,1.24628
5.07,1.11,1.24304
5.09,1.11,1.24359
5.13,1.11,1.24233
5.17,1.11,1.24158
5.23,1.11,1.24304
4.91,1.13,1.24906
4.95,1.13,1.24899
4.97,1.13,1.24974
4.99,1.13,1.2467
5.01,1.13,1.24696
5.03,1.13,1.24544
5.05,1.13,1.24463
5.07,1.13,1.24258
5.09,1.13,1.24193
5.11,1.13,1.2407
5.13,1.13,1.24146
5.17,1.13,1.24261
5.23,1.13,1.24165
4.93,1.15,1.2499
4.95,1.15,1.2487
4.97,1.15,1.24837
4.99,1.15,1.24896
5.01,1.15,1.24796
5.03,1.15,1.2475
5.05,1.15,1.24411
5.07,1.15,1.24512
5.09,1.15,1.24211
5.11,1.15,1.24229
5.17,1.15,1.24179
5.19,1.15,1.24204
5.21,1.15,1.2401
4.93,1.17,1.24954
4.95,1.17,1.2496
4.97,1.17,1.24686
5.03,1.17,1.2491
5.05,1.17,1.24443
5.07,1.17,1.24628
5.09,1.17,1.2421
5.11,1.17,1.24388
5.15,1.17,1.24041
5.19,1.17,1.24074
4.89,1.19,1.2488
4.93,1.19,1.24974
4.95,1.19,1.24881
4.97,1.19,1.24859
4.99,1.19,1.24959
5.03,1.19,1.24849
5.07,1.19,1.24928
5.11,1.19,1.24652
5.15,1.19,1.24269
3.39,1.21,1.24202
4.89,1.21,1.24817
4.93,1.21,1.24762
4.95,1.21,1.24982
4.97,1.21,1.24854
4.99,1.21,1.24838
5.03,1.21,1.24885
5.07,1.21,1.24808
5.09,1.21,1.24945
5.11,1.21,1.24625
5.13,1.21,1.24818
5.15,1.21,1.24177
5.23,1.21,1.24009
4.89,1.23,1.24987
4.93,1.23,1.24816
4.95,1.23,1.24913
4.97,1.23,1.24798
4.99,1.23,1.24657
5.01,1.23,1.24774
5.03,1.23,1.24593
5.05,1.23,1.24692
5.07,1.23,1.24539
5.09,1.23,1.24308
5.11,1.23,1.24212
5.13,1.23,1.24319
4.95,1.25,1.24767
4.97,1.25,1.24797
4.99,1.25,1.24723
5.01,1.25,1.24691
5.03,1.25,1.24658
5.05,1.25,1.24435
5.07,1.25,1.24441
5.09,1.25,1.24268
5.11,1.25,1.24036
5.13,1.25,1.24059
5.21,1.25,1.24197
4.89,1.27,1.24909
4.95,1.27,1.2474
4.97,1.27,1.24748
4.99,1.27,1.24727
5.01,1.27,1.24487
5.03,1.27,1.24608
5.05,1.27,1.24338
5.07,1.27,1.2452
5.09,1.27,1.24191
5.11,1.27,1.24205
5.19,1.27,1.24354
3.43,1.29,1.24285
4.93,1.29,1.24914
4.95,1.29,1.24562
4.97,1.29,1.2479
4.99,1.29,1.24385
5.01,1.29,1.24417
5.03,1.29,1.24489
5.05,1.29,1.24434
5.07,1.29,1.245
5.09,1.29,1.24318
5.11,1.29,1.24009
5.13,1.29,1.24257
5.15,1.29,1.24181
5.17,1.29,1.24097
5.19,1.29,1.24143
3.45,1.31,1.24044
3.47,1.31,1.24429
4.93,1.31,1.24861
4.95,1.31,1.24688
4.97,1.31,1.24776
4.99,1.31,1.24643
5.01,1.31,1.24292
5.03,1.31,1.24591
5.05,1.31,1.24537
5.07,1.31,1.24318
5.09,1.31,1.24394
5.13,1.31,1.24265
5.17,1.31,1.24163
5.23,1.31,1.24885
3.49,1.33,1.2441
4.93,1.33,1.24964
4.95,1.33,1.24883
4.97,1.33,1.24467
4.99,1.33,1.2459
5.01,1.33,1.24189
5.03,1.33,1.24523
5.05,1.33,1.24384
5.07,1.33,1.2433
5.09,1.33,1.24285
5.11,1.33,1.24124
5.13,1.33,1.24116
5.15,1.33,1.24138
5.17,1.33,1.24312
5.21,1.33,1.24347
3.51,1.35,1.24206
3.53,1.35,1.24517
4.93,1.35,1.24853
4.95,1.35,1.24699
4.97,1.35,1.24631
4.99,1.35,1.24558
5.01,1.35,1.24402
5.03,1.35,1.24617
5.05,1.35,1.24384
5.07,1.35,1.24212
5.09,1.35,1.24318
5.11,1.35,1.2445
5.13,1.35,1.24133
5.15,1.35,1.24448
5.17,1.35,1.24805
5.19,1.35,1.24315
5.21,1.35,1.24748
5.23,1.35,1.24177
3.55,1.37,1.24436
4.93,1.37,1.24905
4.95,1.37,1.24733
4.97,1.37,1.2463
4.99,1.37,1.24465
5.01,1.37,1.24354
5.03,1.37,1.2451
5.05,1.37,1.24319
5.07,1.37,1.24286
5.09,1.37,1.2424
5.11,1.37,1.24019
5.13,1.37,1.24139
5.15,1.37,1.2407
3.57,1.39,1.24324
4.93,1.39,1.24975
4.95,1.39,1.24811
4.97,1.39,1.24696
4.99,1.39,1.24511
5.01,1.39,1.24393
5.03,1.39,1.24315
5.07,1.39,1.24314
5.09,1.39,1.24117
5.13,1.39,1.24147
3.59,1.41,1.24092
3.61,1.41,1.24411
4.93,1.41,1.24982
4.95,1.41,1.24771
4.97,1.41,1.24687
4.99,1.41,1.24721
5.01,1.41,1.24535
5.03,1.41,1.24268
5.05,1.41,1.24018
5.07,1.41,1.24162
5.09,1.41,1.24146
5.11,1.41,1.24004
5.13,1.41,1.24229
5.19,1.41,1.24013
3.63,1.43,1.24296
4.93,1.43,1.24868
4.95,1.43,1.24908
4.97,1.43,1.24541
4.99,1.43,1.24474
5.01,1.43,1.24459
5.03,1.43,1.24389
5.05,1.43,1.24243
5.07,1.43,1.24035
5.09,1.43,1.24184
5.13,1.43,1.24081
3.65,1.45,1.24201
4.93,1.45,1.24907
4.95,1.45,1.24879
4.97,1.45,1.24608
4.99,1.45,1.24519
5.01,1.45,1.24419
5.03,1.45,1.24385
5.05,1.45,1.24168
5.07,1.45,1.24146
5.09,1.45,1.24051
5.11,1.45,1.24006
3.69,1.47,1.24234
4.91,1.47,1.24714
4.95,1.47,1.24662
4.97,1.47,1.24792
4.99,1.47,1.24463
5.01,1.47,1.24383
5.03,1.47,1.24305
5.05,1.47,1.24309
5.07,1.47,1.24215
3.53,1.49,1.2404
3.55,1.49,1.24068
3.71,1.49,1.24147
4.95,1.49,1.24813
4.97,1.49,1.24881
4.99,1.49,1.24683
5.01,1.49,1.24558
5.03,1.49,1.24087
5.05,1.49,1.24347
5.07,1.49,1.24164
5.09,1.49,1.24291
3.55,1.51,1.24166
3.57,1.51,1.24095
3.75,1.51,1.24071
4.97,1.51,1.24785
4.99,1.51,1.24666
5.01,1.51,1.24559
5.03,1.51,1.24524
5.05,1.51,1.24266
5.07,1.51,1.24038
5.09,1.51,1.24364
5.13,1.51,1.24276
5.15,1.51,1.24029
3.59,1.53,1.24072
3.79,1.53,1.24929
4.97,1.53,1.24654
4.99,1.53,1.24682
5.01,1.53,1.24621
5.03,1.53,1.24615
5.05,1.53,1.24338
5.07,1.53,1.24274
5.09,1.53,1.24282
5.11,1.53,1.24001
5.15,1.53,1.2402
3.63,1.55,1.2406
3.65,1.55,1.24007
3.81,1.55,1.24662
4.93,1.55,1.24754
4.95,1.55,1.24985
4.97,1.55,1.24565
4.99,1.55,1.24705
5.01,1.55,1.24353
5.03,1.55,1.2468
5.05,1.55,1.2437
5.07,1.55,1.24347
5.09,1.55,1.24162
5.11,1.55,1.24049
5.13,1.55,1.24109
5.15,1.55,1.24008
3.63,1.57,1.24206
3.65,1.57,1.2419
3.67,1.57,1.24079
3.83,1.57,1.24027
4.93,1.57,1.24527
4.95,1.57,1.2488
4.97,1.57,1.24635
4.99,1.57,1.24625
5.01,1.57,1.24083
5.03,1.57,1.24508
5.05,1.57,1.24323
5.07,1.57,1.24377
5.09,1.57,1.24031
5.11,1.57,1.24218
5.13,1.57,1.24091
5.15,1.57,1.24021
3.67,1.59,1.24203
3.69,1.59,1.24109
3.71,1.59,1.24048
3.87,1.59,1.24804
4.09,1.59,1.24979
4.83,1.59,1.2496
4.89,1.59,1.24829
4.93,1.59,1.24751
4.95,1.59,1.24623
4.97,1.59,1.24492
4.99,1.59,1.24567
5.01,1.59,1.24486
5.03,1.59,1.24134
5.05,1.59,1.24213
5.07,1.59,1.24351
5.09,1.59,1.24185
5.11,1.59,1.24282
5.15,1.59,1.2454
5.21,1.59,1.24173
3.71,1.61,1.24171
3.73,1.61,1.24015
3.91,1.61,1.24852
4.03,1.61,1.24978
4.07,1.61,1.24999
4.09,1.61,1.24861
4.11,1.61,1.24831
4.13,1.61,1.24961
4.41,1.61,1.24926
4.43,1.61,1.2498
4.83,1.61,1.24896
4.89,1.61,1.24142
4.91,1.61,1.24826
4.93,1.61,1.24384
4.95,1.61,1.24696
4.97,1.61,1.24614
4.99,1.61,1.24623
5.01,1.61,1.2454
5.03,1.61,1.24138
5.05,1.61,1.24073
5.07,1.61,1.24159
5.09,1.61,1.24303
5.11,1.61,1.24138
5.15,1.61,1.24365
3.73,1.63,1.2411
3.93,1.63,1.24651
4.03,1.63,1.24989
4.05,1.63,1.24899
4.07,1.63,1.24904
4.09,1.63,1.24822
4.11,1.63,1.24792
4.13,1.63,1.24842
4.15,1.63,1.24907
4.45,1.63,1.24947
4.47,1.63,1.24955
4.83,1.63,1.24979
4.89,1.63,1.24416
4.91,1.63,1.24759
4.93,1.63,1.24579
4.95,1.63,1.24711
4.97,1.63,1.24645
4.99,1.63,1.24494
5.01,1.63,1.24488
5.03,1.63,1.24053
5.05,1.63,1.24274
5.07,1.63,1.24175
5.09,1.63,1.24203
5.11,1.63,1.24129
5.15,1.63,1.24028
5.17,1.63,1.24011
5.19,1.63,1.24232
3.77,1.65,1.24065
3.95,1.65,1.24326
3.97,1.65,1.24914
4.01,1.65,1.24996
4.05,1.65,1.249
4.07,1.65,1.24804
4.09,1.65,1.24735
4.11,1.65,1.24752
4.13,1.65,1.24802
4.15,1.65,1.24829
4.17,1.65,1.24875
4.19,1.65,1.24956
4.47,1.65,1.24912
4.49,1.65,1.24768
4.51,1.65,1.24814
4.53,1.65,1.24918
4.83,1.65,1.24898
4.89,1.65,1.24906
4.91,1.65,1.24556
4.93,1.65,1.24659
4.95,1.65,1.24389
4.97,1.65,1.24694
4.99,1.65,1.2434
5.01,1.65,1.24686
5.03,1.65,1.24085
5.05,1.65,1.24429
5.07,1.65,1.24037
5.09,1.65,1.24133
5.11,1.65,1.2414
5.13,1.65,1.24273
5.15,1.65,1.24331
5.17,1.65,1.24082
3.97,1.67,1.24391
3.99,1.67,1.24785
4.01,1.67,1.24911
4.03,1.67,1.24947
4.05,1.67,1.24957
4.07,1.67,1.24811
4.09,1.67,1.24821
4.11,1.67,1.24727
4.13,1.67,1.24768
4.15,1.67,1.24874
4.17,1.67,1.24836
4.19,1.67,1.24711
4.21,1.67,1.24865
4.23,1.67,1.24963
4.47,1.67,1.24975
4.49,1.67,1.24936
4.51,1.67,1.24776
4.53,1.67,1.24636
4.55,1.67,1.24685
4.57,1.67,1.24706
4.83,1.67,1.24991
4.87,1.67,1.24736
4.89,1.67,1.24789
4.91,1.67,1.24393
4.93,1.67,1.2457
4.95,1.67,1.24085
4.97,1.67,1.24322
4.99,1.67,1.24185
5.01,1.67,1.24379
5.05,1.67,1.24139
5.11,1.67,1.24059
5.13,1.67,1.24015
3.99,1.69,1.2422
4.01,1.69,1.24684
4.03,1.69,1.24874
4.05,1.69,1.24961
4.09,1.69,1.2497
4.11,1.69,1.2485
4.13,1.69,1.24806
4.15,1.69,1.24871
4.17,1.69,1.24904
4.19,1.69,1.24629
4.21,1.69,1.24798
4.23,1.69,1.24923
4.49,1.69,1.24956
4.51,1.69,1.24825
4.53,1.69,1.24734
4.55,1.69,1.24516
4.57,1.69,1.2431
4.59,1.69,1.2447
4.61,1.69,1.24763
4.81,1.69,1.24959
4.83,1.69,1.24782
4.85,1.69,1.24818
4.87,1.69,1.24628
4.89,1.69,1.24402
4.91,1.69,1.24519
4.93,1.69,1.24392
4.95,1.69,1.24147
4.97,1.69,1.24363
4.99,1.69,1.24676
5.01,1.69,1.24179
5.05,1.69,1.24152
5.07,1.69,1.2406
4.01,1.71,1.24663
4.13,1.71,1.24981
4.19,1.71,1.24932
4.51,1.71,1.24984
4.53,1.71,1.24904
4.55,1.71,1.2476
4.57,1.71,1.24548
4.59,1.71,1.2443
4.61,1.71,1.2418
4.63,1.71,1.24397
4.65,1.71,1.24932
4.79,1.71,1.24727
4.81,1.71,1.24845
4.83,1.71,1.24468
4.85,1.71,1.24762
4.87,1.71,1.24582
4.91,1.71,1.24295
4.95,1.71,1.24203
4.99,1.71,1.24085
5.03,1.71,1.24373
5.05,1.71,1.24032
3.97,1.73,1.24006
3.99,1.73,1.24936
4.57,1.73,1.24753
4.59,1.73,1.24664
4.61,1.73,1.24238
4.63,1.73,1.24155
4.65,1.73,1.24255
4.67,1.73,1.24184
4.69,1.73,1.24658
4.71,1.73,1.24943
4.75,1.73,1.24751
4.77,1.73,1.24899
4.79,1.73,1.24443
4.81,1.73,1.24764
4.83,1.73,1.24429
4.85,1.73,1.24655
4.87,1.73,1.24603
4.91,1.73,1.24203
3.97,1.75,1.24961
4.59,1.75,1.24845
4.61,1.75,1.24523
4.63,1.75,1.24385
4.65,1.75,1.24019
4.73,1.75,1.24677
4.75,1.75,1.24637
4.77,1.75,1.24746
4.79,1.75,1.24605
4.81,1.75,1.24694
4.83,1.75,1.24586
4.85,1.75,1.24272
4.87,1.75,1.24385
4.91,1.75,1.24146
5.11,1.75,1.24287
3.93,1.77,1.24062
3.95,1.77,1.2404
4.61,1.77,1.24806
4.63,1.77,1.24597
4.65,1.77,1.24238
4.73,1.77,1.24053
4.75,1.77,1.24606
4.77,1.77,1.24359
4.79,1.77,1.24621
4.81,1.77,1.24489
4.83,1.77,1.24424
4.85,1.77,1.24079
4.87,1.77,1.24336
5.11,1.77,1.24127
4.63,1.79,1.24948
4.65,1.79,1.24597
4.67,1.79,1.24229
4.79,1.79,1.24048
4.83,1.79,1.24286
4.85,1.79,1.2432
4.87,1.79,1.24215
4.89,1.79,1.24137
4.67,1.81,1.24683
4.69,1.81,1.24386
4.71,1.81,1.24033
4.85,1.81,1.24088
4.89,1.81,1.24136
4.69,1.83,1.24974
4.71,1.83,1.24458
4.73,1.83,1.24112
4.73,1.85,1.24587
4.75,1.85,1.2405
4.75,1.87,1.24862
4.77,1.87,1.24412
4.79,1.89,1.24456
5.01,1.89,1.2409
4.81,1.91,1.24404
4.83,1.91,1.24209
5.01,1.91,1.242
5.03,1.91,1.24156
4.83,1.93,1.24693
4.85,1.93,1.24108
5.07,1.93,1.24134
5.11,1.93,1.2436
5.13,1.93,1.24103
5.17,1.93,1.24113
4.85,1.95,1.24902
4.87,1.95,1.24401
5.13,1.95,1.24607
5.15,1.95,1.24003
5.17,1.95,1.24731
4.89,1.97,1.24377
5.13,1.97,1.24535
5.17,1.97,1.24825
5.23,1.97,1.24461
4.91,1.99,1.24532
5.17,1.99,1.24403
5.17,2.01,1.24181
5.23,2.01,1.24502
4.99,2.03,1.24511
5.07,2.07,1.24335
3.83,-0.25,1.25233
3.85,-0.25,1.25533
3.87,-0.25,1.2565
3.89,-0.25,1.25959
3.93,-0.19,1.25482
3.93,-0.17,1.2531
3.93,-0.09,1.25031
3.95,-0.07,1.25498
3.97,-0.05,1.2523
3.99,-0.03,1.25251
4.01,-0.03,1.25759
3.97,-0.01,1.25035
3.99,-0.01,1.2536
4.01,-0.01,1.2585
3.95,0.01,1.25049
3.97,0.01,1.25374
3.99,0.01,1.25784
3.93,0.03,1.25108
3.95,0.03,1.25541
3.97,0.03,1.25912
3.91,0.05,1.25151
3.93,0.05,1.25788
3.95,0.05,1.25951
3.87,0.07,1.2501
3.89,0.07,1.25466
3.91,0.07,1.25951
3.69,0.09,1.25117
3.71,0.09,1.25034
3.85,0.09,1.25143
3.87,0.09,1.25519
3.63,0.11,1.25085
3.65,0.11,1.25286
3.67,0.11,1.25207
3.69,0.11,1.25106
3.71,0.11,1.25002
3.73,0.11,1.25028
3.75,0.11,1.25062
3.77,0.11,1.25024
3.79,0.11,1.25051
3.81,0.11,1.25085
3.83,0.11,1.25311
3.85,0.11,1.25854
4.57,0.11,1.25949
4.89,0.11,1.25961
4.95,0.11,1.25991
3.61,0.13,1.25124
3.63,0.13,1.25333
3.65,0.13,1.2523
3.67,0.13,1.2513
3.69,0.13,1.25082
3.71,0.13,1.25067
3.73,0.13,1.25212
3.75,0.13,1.25221
3.77,0.13,1.25226
3.79,0.13,1.25273
3.81,0.13,1.25418
3.83,0.13,1.25996
4.55,0.13,1.25863
4.57,0.13,1.25895
4.59,0.13,1.2582
4.61,0.13,1.25959
4.81,0.13,1.25679
4.83,0.13,1.25872
4.85,0.13,1.25859
4.87,0.13,1.2573
4.89,0.13,1.25784
4.91,0.13,1.25782
4.93,0.13,1.25759
4.95,0.13,1.25629
4.97,0.13,1.25612
4.99,0.13,1.25334
5.01,0.13,1.25448
5.03,0.13,1.25459
3.59,0.15,1.25186
3.61,0.15,1.25324
3.63,0.15,1.2518
3.65,0.15,1.25113
3.67,0.15,1.25163
3.69,0.15,1.25304
3.71,0.15,1.25341
3.73,0.15,1.25341
3.75,0.15,1.25342
3.77,0.15,1.25429
3.79,0.15,1.25775
4.55,0.15,1.25959
4.57,0.15,1.25926
4.59,0.15,1.2588
4.61,0.15,1.25873
4.75,0.15,1.25867
4.77,0.15,1.25961
4.79,0.15,1.25792
4.81,0.15,1.25245
4.83,0.15,1.25558
4.85,0.15,1.25422
4.87,0.15,1.25464
4.89,0.15,1.25611
4.91,0.15,1.25497
4.93,0.15,1.25399
4.95,0.15,1.25481
4.97,0.15,1.25341
4.99,0.15,1.25086
5.15,0.15,1.25046
5.23,0.15,1.25061
3.57,0.17,1.25186
3.59,0.17,1.25239
3.61,0.17,1.25097
3.63,0.17,1.25064
3.65,0.17,1.25203
3.67,0.17,1.25364
3.69,0.17,1.25431
3.71,0.17,1.25478
3.73,0.17,1.25511
3.75,0.17,1.25566
3.77,0.17,1.25916
4.57,0.17,1.25963
4.59,0.17,1.2598
4.61,0.17,1.25988
4.73,0.17,1.25997
4.75,0.17,1.25746
4.77,0.17,1.25651
4.79,0.17,1.25445
4.81,0.17,1.25213
4.83,0.17,1.25389
4.85,0.17,1.25101
4.87,0.17,1.25259
4.89,0.17,1.2531
4.91,0.17,1.2509
4.93,0.17,1.25135
4.95,0.17,1.25094
3.53,0.19,1.25009
3.55,0.19,1.25089
3.57,0.19,1.25036
3.63,0.19,1.25053
3.65,0.19,1.25293
3.67,0.19,1.25453
3.69,0.19,1.25532
3.71,0.19,1.25672
3.73,0.19,1.25865
4.61,0.19,1.25986
4.71,0.19,1.25893
4.73,0.19,1.25625
4.75,0.19,1.25631
4.77,0.19,1.25447
4.79,0.19,1.25241
4.81,0.19,1.25188
4.83,0.19,1.2521
3.51,0.21,1.2509
3.53,0.21,1.25068
3.63,0.21,1.25049
3.65,0.21,1.25358
3.67,0.21,1.25618
3.69,0.21,1.25812
4.67,0.21,1.25904
4.69,0.21,1.25875
4.71,0.21,1.25734
4.73,0.21,1.25459
4.75,0.21,1.25486
4.77,0.21,1.25319
4.79,0.21,1.25213
4.81,0.21,1.25075
4.83,0.21,1.25055
3.49,0.23,1.25154
3.51,0.23,1.25092
3.53,0.23,1.25009
3.61,0.23,1.25004
3.63,0.23,1.25323
3.65,0.23,1.25672
4.63,0.23,1.2599
4.65,0.23,1.25887
4.67,0.23,1.25862
4.69,0.23,1.25746
4.71,0.23,1.25552
4.73,0.23,1.25496
4.75,0.23,1.25464
4.77,0.23,1.25309
4.79,0.23,1.25253
4.81,0.23,1.25008
3.49,0.25,1.25181
3.51,0.25,1.25124
3.53,0.25,1.25061
3.59,0.25,1.25172
3.61,0.25,1.2549
3.63,0.25,1.25858
4.65,0.25,1.25812
4.67,0.25,1.25871
4.69,0.25,1.25744
4.71,0.25,1.25708
4.73,0.25,1.25721
4.75,0.25,1.25509
4.77,0.25,1.25281
4.79,0.25,1.25154
4.81,0.25,1.25037
3.47,0.27,1.2517
3.49,0.27,1.25262
3.51,0.27,1.25295
3.53,0.27,1.25224
3.55,0.27,1.2522
3.57,0.27,1.25365
3.59,0.27,1.2571
4.69,0.27,1.25977
4.71,0.27,1.25968
4.73,0.27,1.25814
4.75,0.27,1.25451
4.77,0.27,1.25627
4.79,0.27,1.25284
4.81,0.27,1.25011
3.47,0.29,1.25226
3.49,0.29,1.25411
3.51,0.29,1.25428
3.53,0.29,1.25445
3.55,0.29,1.25702
3.57,0.29,1.25983
4.73,0.29,1.25819
4.75,0.29,1.25638
4.77,0.29,1.25374
4.79,0.29,1.25309
3.47,0.31,1.25332
3.49,0.31,1.25447
3.51,0.31,1.25497
3.53,0.31,1.25719
4.73,0.31,1.25945
4.75,0.31,1.25577
4.77,0.31,1.25492
4.79,0.31,1.25427
4.81,0.31,1.25265
4.83,0.31,1.25003
3.45,0.33,1.25092
3.47,0.33,1.25386
3.49,0.33,1.25461
3.51,0.33,1.25623
4.75,0.33,1.25599
4.77,0.33,1.25698
4.79,0.33,1.25582
4.81,0.33,1.25407
4.83,0.33,1.25072
3.45,0.35,1.25207
3.47,0.35,1.25468
3.49,0.35,1.25747
4.75,0.35,1.25985
4.77,0.35,1.25843
4.79,0.35,1.25745
4.81,0.35,1.25503
4.83,0.35,1.2539
4.85,0.35,1.25074
4.87,0.35,1.25024
4.89,0.35,1.25068
3.45,0.37,1.2548
3.47,0.37,1.25852
4.77,0.37,1.25933
4.79,0.37,1.25835
4.81,0.37,1.25728
4.83,0.37,1.25552
4.85,0.37,1.254
4.87,0.37,1.25249
4.89,0.37,1.25143
4.91,0.37,1.25016
3.43,0.39,1.25034
4.79,0.39,1.25737
4.81,0.39,1.25881
4.83,0.39,1.25783
4.85,0.39,1.25563
4.87,0.39,1.25242
4.89,0.39,1.25262
4.91,0.39,1.25099
4.95,0.39,1.25123
3.43,0.41,1.25631
4.83,0.41,1.25974
4.85,0.41,1.25617
4.87,0.41,1.2556
4.89,0.41,1.25459
4.91,0.41,1.25375
4.93,0.41,1.25232
4.95,0.41,1.25277
4.97,0.41,1.25214
4.99,0.41,1.25114
5.03,0.41,1.2504
5.05,0.41,1.2509
5.07,0.41,1.25008
5.09,0.41,1.25032
3.43,0.43,1.2582
4.85,0.43,1.25971
4.87,0.43,1.25785
4.89,0.43,1.25728
4.91,0.43,1.25558
4.93,0.43,1.25553
4.95,0.43,1.25599
4.97,0.43,1.25572
4.99,0.43,1.25538
5.01,0.43,1.25412
5.03,0.43,1.25351
5.05,0.43,1.25501
5.07,0.43,1.25258
5.09,0.43,1.2514
5.11,0.43,1.25631
5.13,0.43,1.25096
5.15,0.43,1.25549
5.17,0.43,1.2579
5.19,0.43,1.25311
4.87,0.45,1.25956
4.89,0.45,1.25836
4.91,0.45,1.2578
4.93,0.45,1.25882
4.95,0.45,1.258
4.97,0.45,1.25747
4.99,0.45,1.25771
5.01,0.45,1.25639
5.03,0.45,1.25761
5.07,0.45,1.25817
5.09,0.45,1.2545
5.13,0.45,1.25397
5.15,0.45,1.25008
5.17,0.45,1.25201
5.19,0.45,1.25244
5.23,0.45,1.25304
4.93,0.47,1.25945
4.95,0.47,1.25877
4.97,0.47,1.25995
5.05,0.47,1.2589
5.07,0.47,1.25861
5.09,0.47,1.25412
5.11,0.47,1.25137
5.13,0.47,1.25378
5.17,0.47,1.25124
5.19,0.47,1.25001
5.23,0.47,1.25185
4.95,0.49,1.25633
5.01,0.49,1.25708
5.03,0.49,1.2582
5.05,0.49,1.25876
5.09,0.49,1.25697
5.11,0.49,1.25567
5.15,0.49,1.2518
5.17,0.49,1.25065
4.97,0.51,1.25877
4.99,0.51,1.25936
5.01,0.51,1.25696
5.03,0.51,1.25717
5.05,0.51,1.25552
5.07,0.51,1.25702
5.09,0.51,1.2534
5.11,0.51,1.25421
5.15,0.51,1.25087
3.41,0.53,1.25221
4.93,0.53,1.25951
4.97,0.53,1.25985
4.99,0.53,1.25997
5.03,0.53,1.25667
5.05,0.53,1.25659
5.07,0.53,1.25264
5.09,0.53,1.25147
5.11,0.53,1.25217
5.17,0.53,1.25041
3.41,0.55,1.25582
5.03,0.55,1.25667
5.07,0.55,1.25233
5.09,0.55,1.25023
5.11,0.55,1.2512
3.41,0.57,1.25673
4.99,0.57,1.25638
5.01,0.57,1.25657
5.03,0.57,1.25195
5.05,0.57,1.25501
5.11,0.57,1.25068
3.41,0.59,1.25753
4.95,0.59,1.25885
4.97,0.59,1.25737
4.99,0.59,1.25219
5.01,0.59,1.25455
5.05,0.59,1.25244
3.41,0.61,1.25803
4.85,0.61,1.25942
4.89,0.61,1.2581
4.91,0.61,1.25887
4.95,0.61,1.25446
4.97,0.61,1.25641
4.99,0.61,1.2518
5.01,0.61,1.2542
5.05,0.61,1.25249
3.41,0.63,1.25788
4.85,0.63,1.25797
4.89,0.63,1.25815
4.91,0.63,1.25926
4.93,0.63,1.25835
4.95,0.63,1.25141
4.97,0.63,1.2548
4.99,0.63,1.25124
5.01,0.63,1.25357
5.03,0.63,1.25083
5.05,0.63,1.25144
5.07,0.63,1.25096
5.09,0.63,1.25005
3.41,0.65,1.25956
4.89,0.65,1.25959
4.91,0.65,1.25785
4.93,0.65,1.25855
4.95,0.65,1.2543
4.97,0.65,1.25437
4.99,0.65,1.25382
5.01,0.65,1.25346
5.03,0.65,1.25222
5.05,0.65,1.25135
5.07,0.65,1.25099
5.09,0.65,1.25144
5.15,0.65,1.25167
5.17,0.65,1.25254
4.87,0.67,1.25943
4.91,0.67,1.25781
4.93,0.67,1.25799
4.95,0.67,1.25729
4.97,0.67,1.25597
4.99,0.67,1.25631
5.01,0.67,1.2526
5.03,0.67,1.25415
5.05,0.67,1.25086
5.07,0.67,1.25307
5.09,0.67,1.25137
5.15,0.67,1.25098
4.87,0.69,1.25879
4.89,0.69,1.25999
4.91,0.69,1.25818
4.93,0.69,1.25725
4.95,0.69,1.25762
4.97,0.69,1.25596
4.99,0.69,1.25704
5.01,0.69,1.25513
5.03,0.69,1.25492
5.05,0.69,1.25292
5.07,0.69,1.25155
5.09,0.69,1.25266
5.11,0.69,1.25064
5.13,0.69,1.25466
5.15,0.69,1.25083
4.87,0.71,1.25809
4.91,0.71,1.25894
4.93,0.71,1.25636
4.95,0.71,1.25782
4.97,0.71,1.25678
4.99,0.71,1.25525
5.01,0.71,1.25539
5.05,0.71,1.25299
5.09,0.71,1.25154
5.13,0.71,1.2508
4.87,0.73,1.25835
4.89,0.73,1.25987
4.91,0.73,1.25879
4.93,0.73,1.25709
4.95,0.73,1.25787
4.97,0.73,1.25621
4.99,0.73,1.25473
5.01,0.73,1.25624
5.03,0.73,1.25181
5.05,0.73,1.25503
5.07,0.73,1.25116
5.09,0.73,1.25228
5.13,0.73,1.25031
4.89,0.75,1.25844
4.91,0.75,1.25939
4.93,0.75,1.25827
4.95,0.75,1.256
4.97,0.75,1.25504
4.99,0.75,1.25468
5.01,0.75,1.25637
5.03,0.75,1.25356
5.05,0.75,1.25304
5.07,0.75,1.25177
5.09,0.75,1.25258
5.11,0.75,1.2515
5.21,0.75,1.25419
5.23,0.75,1.25025
4.89,0.77,1.25675
4.91,0.77,1.25959
4.93,0.77,1.25751
4.95,0.77,1.25601
4.97,0.77,1.25735
4.99,0.77,1.25464
5.01,0.77,1.25556
5.03,0.77,1.25127
5.05,0.77,1.25344
5.07,0.77,1.25388
5.09,0.77,1.25184
5.11,0.77,1.25322
5.15,0.77,1.25262
5.21,0.77,1.2512
4.89,0.79,1.25592
4.91,0.79,1.25844
4.93,0.79,1.2574
4.95,0.79,1.25471
4.97,0.79,1.25735
4.99,0.79,1.25521
5.01,0.79,1.25531
5.03,0.79,1.25405
5.05,0.79,1.25328
5.07,0.79,1.25407
5.09,0.79,1.25111
5.11,0.79,1.25276
5.15,0.79,1.25038
4.85,0.81,1.25877
4.89,0.81,1.2587
4.91,0.81,1.25707
4.93,0.81,1.25811
4.95,0.81,1.25581
4.97,0.81,1.25604
4.99,0.81,1.25496
5.01,0.81,1.25438
5.03,0.81,1.25442
5.05,0.81,1.25196
5.07,0.81,1.25291
5.11,0.81,1.25056
5.23,0.81,1.25173
4.81,0.83,1.25932
4.87,0.83,1.25877
4.89,0.83,1.2589
4.91,0.83,1.25779
4.93,0.83,1.25819
4.95,0.83,1.25654
4.97,0.83,1.25384
4.99,0.83,1.25502
5.01,0.83,1.25443
5.03,0.83,1.2537
5.05,0.83,1.2509
5.07,0.83,1.25209
5.09,0.83,1.25107
5.23,0.83,1.25243
4.87,0.85,1.25892
4.89,0.85,1.25903
4.91,0.85,1.25862
4.93,0.85,1.25697
4.95,0.85,1.25672
4.97,0.85,1.2547
4.99,0.85,1.25593
5.01,0.85,1.25571
5.03,0.85,1.25281
5.05,0.85,1.25294
5.07,0.85,1.25204
5.09,0.85,1.2523
5.23,0.85,1.25251
3.39,0.87,1.25392
4.87,0.87,1.25988
4.89,0.87,1.25907
4.91,0.87,1.25794
4.93,0.87,1.25779
4.95,0.87,1.25751
4.97,0.87,1.25699
4.99,0.87,1.25435
5.01,0.87,1.25438
5.03,0.87,1.25133
5.05,0.87,1.25252
5.07,0.87,1.25233
5.09,0.87,1.25088
5.23,0.87,1.25021
3.39,0.89,1.25716
4.87,0.89,1.25913
4.89,0.89,1.25886
4.91,0.89,1.25634
4.93,0.89,1.2599
4.97,0.89,1.25779
4.99,0.89,1.25168
5.01,0.89,1.25328
5.03,0.89,1.2518
5.05,0.89,1.25132
5.07,0.89,1.25139
5.09,0.89,1.25051
3.39,0.91,1.25779
4.87,0.91,1.25939
4.89,0.91,1.25831
4.91,0.91,1.25548
4.93,0.91,1.25754
4.97,0.91,1.25629
4.99,0.91,1.25297
5.03,0.91,1.25201
5.05,0.91,1.25011
5.07,0.91,1.25135
3.39,0.93,1.25831
4.85,0.93,1.25982
4.87,0.93,1.2586
4.89,0.93,1.25663
4.91,0.93,1.25612
4.93,0.93,1.25551
4.95,0.93,1.25724
4.97,0.93,1.2527
4.99,0.93,1.25298
5.03,0.93,1.25109
5.07,0.93,1.25034
3.39,0.95,1.25802
4.85,0.95,1.25802
4.87,0.95,1.25935
4.89,0.95,1.25778
4.91,0.95,1.25607
4.93,0.95,1.25578
4.95,0.95,1.25329
4.97,0.95,1.25098
4.99,0.95,1.25272
5.01,0.95,1.25089
5.03,0.95,1.25031
5.07,0.95,1.25015
3.39,0.97,1.25736
4.85,0.97,1.25847
4.87,0.97,1.25891
4.89,0.97,1.25745
4.91,0.97,1.25147
4.93,0.97,1.25522
4.95,0.97,1.25318
4.97,0.97,1.25293
4.99,0.97,1.25137
5.01,0.97,1.25133
5.03,0.97,1.2511
5.05,0.97,1.25123
5.07,0.97,1.2513
5.17,0.97,1.25213
3.39,0.99,1.25729
4.85,0.99,1.25914
4.87,0.99,1.2551
4.89,0.99,1.25703
4.91,0.99,1.25099
4.93,0.99,1.25502
4.95,0.99,1.25276
4.97,0.99,1.25166
4.99,0.99,1.25228
5.01,0.99,1.25032
5.03,0.99,1.25126
5.07,0.99,1.25066
3.39,1.01,1.25831
4.83,1.01,1.25988
4.85,1.01,1.25924
4.87,1.01,1.25446
4.89,1.01,1.2573
4.91,1.01,1.25269
4.93,1.01,1.25361
4.95,1.01,1.25349
4.99,1.01,1.25174
5.03,1.01,1.25026
3.39,1.03,1.25976
4.79,1.03,1.25946
4.83,1.03,1.25908
4.85,1.03,1.25664
4.87,1.03,1.25744
4.89,1.03,1.25694
4.91,1.03,1.25509
4.93,1.03,1.25134
4.95,1.03,1.25255
4.99,1.03,1.25102
3.39,1.05,1.2596
4.79,1.05,1.25661
4.81,1.05,1.2597
4.83,1.05,1.25937
4.85,1.05,1.25299
4.87,1.05,1.25665
4.89,1.05,1.25616
4.91,1.05,1.25414
4.95,1.05,1.25259
3.39,1.07,1.2593
4.79,1.07,1.25879
4.81,1.07,1.2579
4.83,1.07,1.25933
4.85,1.07,1.256
4.87,1.07,1.25598
4.89,1.07,1.25616
4.91,1.07,1.25352
4.95,1.07,1.25141
3.39,1.09,1.25884
4.81,1.09,1.25779
4.83,1.09,1.25805
4.85,1.09,1.2574
4.87,1.09,1.25365
4.89,1.09,1.25521
4.91,1.09,1.25248
4.93,1.09,1.25045
4.95,1.09,1.25052
3.39,1.11,1.25917
4.77,1.11,1.25974
4.79,1.11,1.25982
4.81,1.11,1.25827
4.83,1.11,1.25619
4.85,1.11,1.2574
4.87,1.11,1.2537
4.89,1.11,1.25505
4.91,1.11,1.25097
4.93,1.11,1.2521
3.39,1.13,1.25999
4.79,1.13,1.25775
4.81,1.13,1.25836
4.83,1.13,1.257
4.85,1.13,1.25663
4.87,1.13,1.25543
4.89,1.13,1.25509
4.93,1.13,1.25171
3.39,1.15,1.25987
4.73,1.15,1.25813
4.79,1.15,1.25868
4.81,1.15,1.25719
4.83,1.15,1.25841
4.85,1.15,1.25759
4.87,1.15,1.25542
4.89,1.15,1.25332
4.91,1.15,1.25205
3.39,1.17,1.25867
4.73,1.17,1.25947
4.75,1.17,1.25955
4.79,1.17,1.25923
4.81,1.17,1.25809
4.83,1.17,1.25651
4.85,1.17,1.25661
4.87,1.17,1.25569
4.89,1.17,1.25075
4.91,1.17,1.2525
4.99,1.17,1.25092
5.01,1.17,1.25433
3.39,1.19,1.25349
4.75,1.19,1.25852
4.77,1.19,1.25893
4.79,1.19,1.25841
4.81,1.19,1.25732
4.83,1.19,1.25489
4.85,1.19,1.25547
4.87,1.19,1.25521
4.91,1.19,1.25302
5.01,1.19,1.25043
5.05,1.19,1.25321
5.09,1.19,1.25169
4.71,1.21,1.25984
4.75,1.21,1.25906
4.77,1.21,1.2578
4.79,1.21,1.25769
4.81,1.21,1.25636
4.83,1.21,1.25498
4.85,1.21,1.25451
4.87,1.21,1.25399
4.91,1.21,1.2518
5.01,1.21,1.25314
5.05,1.21,1.25393
3.41,1.23,1.2564
4.75,1.23,1.25928
4.77,1.23,1.25677
4.79,1.23,1.25773
4.81,1.23,1.2568
4.83,1.23,1.25505
4.85,1.23,1.25499
4.87,1.23,1.25391
4.91,1.23,1.25095
4.73,1.25,1.25956
4.75,1.25,1.25959
4.77,1.25,1.25708
4.79,1.25,1.25765
4.81,1.25,1.25736
4.83,1.25,1.25543
4.85,1.25,1.25428
4.87,1.25,1.25321
4.89,1.25,1.25056
4.91,1.25,1.25172
4.93,1.25,1.25072
3.43,1.27,1.25644
3.57,1.27,1.25982
4.73,1.27,1.25703
4.75,1.27,1.25873
4.77,1.27,1.25846
4.79,1.27,1.25677
4.81,1.27,1.25702
4.83,1.27,1.2557
4.85,1.27,1.25418
4.87,1.27,1.25318
4.91,1.27,1.2515
4.93,1.27,1.25069
3.45,1.29,1.25556
3.47,1.29,1.25911
3.57,1.29,1.25996
3.59,1.29,1.25981
4.69,1.29,1.25926
4.71,1.29,1.2599
4.73,1.29,1.25773
4.75,1.29,1.25783
4.77,1.29,1.25812
4.79,1.29,1.25669
4.81,1.29,1.25596
4.83,1.29,1.25589
4.85,1.29,1.25432
4.87,1.29,1.25292
4.89,1.29,1.25065
4.91,1.29,1.25061
3.49,1.31,1.25662
3.59,1.31,1.25998
3.61,1.31,1.25997
3.63,1.31,1.25998
4.69,1.31,1.25827
4.71,1.31,1.25896
4.73,1.31,1.25811
4.75,1.31,1.25612
4.77,1.31,1.25723
4.79,1.31,1.25718
4.81,1.31,1.25621
4.83,1.31,1.25466
4.85,1.31,1.25503
4.87,1.31,1.25354
4.89,1.31,1.25183
4.91,1.31,1.25142
3.51,1.33,1.25591
3.53,1.33,1.25856
3.61,1.33,1.25966
3.63,1.33,1.25959
3.65,1.33,1.25952
3.67,1.33,1.25957
4.69,1.33,1.25917
4.71,1.33,1.25623
4.73,1.33,1.25722
4.75,1.33,1.25603
4.77,1.33,1.25651
4.79,1.33,1.25665
4.81,1.33,1.25565
4.83,1.33,1.25392
4.85,1.33,1.25461
4.87,1.33,1.25376
4.89,1.33,1.25122
4.91,1.33,1.2505
3.55,1.35,1.25549
3.57,1.35,1.25993
3.61,1.35,1.25984
3.63,1.35,1.25933
3.65,1.35,1.25907
3.67,1.35,1.25873
3.69,1.35,1.25891
3.71,1.35,1.25971
4.69,1.35,1.25997
4.71,1.35,1.25786
4.73,1.35,1.25697
4.75,1.35,1.25636
4.77,1.35,1.25575
4.79,1.35,1.25569
4.81,1.35,1.25517
4.83,1.35,1.2539
4.85,1.35,1.25336
4.87,1.35,1.25353
4.89,1.35,1.25099
4.91,1.35,1.25069
3.57,1.37,1.25441
3.59,1.37,1.25865
3.61,1.37,1.25928
3.63,1.37,1.25888
3.65,1.37,1.25849
3.67,1.37,1.25818
3.69,1.37,1.25821
3.71,1.37,1.25846
3.73,1.37,1.259
3.75,1.37,1.25946
4.69,1.37,1.25918
4.71,1.37,1.25874
4.73,1.37,1.25685
4.75,1.37,1.25661
4.77,1.37,1.25578
4.79,1.37,1.25424
4.81,1.37,1.25488
4.83,1.37,1.25387
4.85,1.37,1.25304
4.87,1.37,1.25363
4.89,1.37,1.25155
4.91,1.37,1.2507
3.59,1.39,1.25188
3.61,1.39,1.25568
3.63,1.39,1.25811
3.65,1.39,1.25815
3.67,1.39,1.25779
3.69,1.39,1.25775
3.71,1.39,1.25766
3.73,1.39,1.25768
3.75,1.39,1.25798
3.77,1.39,1.2587
4.71,1.39,1.25817
4.73,1.39,1.25802
4.75,1.39,1.25635
4.77,1.39,1.25608
4.79,1.39,1.25354
4.81,1.39,1.25478
4.83,1.39,1.2544
4.85,1.39,1.25357
4.87,1.39,1.25361
4.89,1.39,1.25315
4.91,1.39,1.25023
3.63,1.41,1.25384
3.65,1.41,1.2579
3.67,1.41,1.25799
3.69,1.41,1.25745
3.71,1.41,1.25696
3.73,1.41,1.25703
3.75,1.41,1.257
3.77,1.41,1.25737
3.79,1.41,1.25819
3.81,1.41,1.25984
4.73,1.41,1.25788
4.75,1.41,1.25746
4.77,1.41,1.256
4.79,1.41,1.25521
4.81,1.41,1.25473
4.83,1.41,1.25467
4.85,1.41,1.25335
4.87,1.41,1.25317
4.89,1.41,1.25266
4.91,1.41,1.25111
3.65,1.43,1.25282
3.67,1.43,1.25717
3.69,1.43,1.25742
3.71,1.43,1.25699
3.73,1.43,1.25682
3.75,1.43,1.25652
3.77,1.43,1.25631
3.79,1.43,1.25671
3.81,1.43,1.25729
3.83,1.43,1.25819
4.09,1.43,1.25941
4.11,1.43,1.25991
4.73,1.43,1.25911
4.75,1.43,1.25706
4.77,1.43,1.25747
4.79,1.43,1.25587
4.81,1.43,1.25525
4.83,1.43,1.25455
4.85,1.43,1.25442
4.87,1.43,1.25374
4.89,1.43,1.25173
4.91,1.43,1.25117
3.67,1.45,1.25109
3.69,1.45,1.25457
3.71,1.45,1.25707
3.73,1.45,1.25731
3.75,1.45,1.25667
3.77,1.45,1.25595
3.79,1.45,1.25542
3.81,1.45,1.25634
3.83,1.45,1.25682
3.85,1.45,1.25778
3.87,1.45,1.25938
4.09,1.45,1.25972
4.11,1.45,1.25875
4.13,1.45,1.25798
4.15,1.45,1.25775
4.17,1.45,1.25836
4.19,1.45,1.25942
4.75,1.45,1.25731
4.77,1.45,1.2573
4.79,1.45,1.25707
4.81,1.45,1.25453
4.83,1.45,1.25516
4.85,1.45,1.25457
4.87,1.45,1.25371
4.89,1.45,1.25247
4.91,1.45,1.25045
3.71,1.47,1.25247
3.73,1.47,1.25655
3.75,1.47,1.25667
3.77,1.47,1.25606
3.79,1.47,1.25552
3.81,1.47,1.25563
3.83,1.47,1.25559
3.85,1.47,1.25649
3.87,1.47,1.25696
3.89,1.47,1.25822
3.91,1.47,1.25863
3.93,1.47,1.25906
4.11,1.47,1.25978
4.13,1.47,1.25848
4.15,1.47,1.25764
4.17,1.47,1.25661
4.19,1.47,1.25476
4.21,1.47,1.25522
4.23,1.47,1.25734
4.71,1.47,1.25793
4.73,1.47,1.25987
4.75,1.47,1.25824
4.77,1.47,1.25435
4.79,1.47,1.257
4.81,1.47,1.25593
4.83,1.47,1.2545
4.85,1.47,1.25477
4.87,1.47,1.25221
4.89,1.47,1.25245
4.93,1.47,1.25042
3.73,1.49,1.25138
3.75,1.49,1.25334
3.77,1.49,1.25572
3.79,1.49,1.25607
3.81,1.49,1.25564
3.83,1.49,1.25509
3.85,1.49,1.25533
3.87,1.49,1.25558
3.89,1.49,1.25613
3.91,1.49,1.25687
3.93,1.49,1.2573
3.95,1.49,1.25773
3.97,1.49,1.25777
4.15,1.49,1.25827
4.17,1.49,1.25758
4.19,1.49,1.25604
4.21,1.49,1.25327
4.23,1.49,1.25236
4.25,1.49,1.25491
4.71,1.49,1.25795
4.73,1.49,1.25831
4.75,1.49,1.25815
4.77,1.49,1.25418
4.79,1.49,1.25662
4.81,1.49,1.25648
4.83,1.49,1.25187
4.85,1.49,1.25464
4.87,1.49,1.25443
4.89,1.49,1.25267
4.91,1.49,1.25028
4.93,1.49,1.25144
3.77,1.51,1.25072
3.79,1.51,1.25499
3.81,1.51,1.25553
3.83,1.51,1.25494
3.85,1.51,1.25419
3.87,1.51,1.25427
3.89,1.51,1.255
3.91,1.51,1.25533
3.93,1.51,1.25524
3.95,1.51,1.2563
3.97,1.51,1.25619
3.99,1.51,1.25605
4.01,1.51,1.25744
4.17,1.51,1.25805
4.19,1.51,1.25681
4.21,1.51,1.25502
4.23,1.51,1.2534
4.25,1.51,1.25234
4.27,1.51,1.25288
4.29,1.51,1.25536
4.71,1.51,1.25915
4.73,1.51,1.25707
4.75,1.51,1.25752
4.77,1.51,1.25545
4.79,1.51,1.25566
4.81,1.51,1.25541
4.83,1.51,1.25335
4.85,1.51,1.25362
4.87,1.51,1.25469
4.89,1.51,1.25246
4.91,1.51,1.25237
4.93,1.51,1.2505
4.95,1.51,1.25038
3.81,1.53,1.25385
3.83,1.53,1.25463
3.85,1.53,1.2542
3.87,1.53,1.25368
3.89,1.53,1.25364
3.91,1.53,1.25445
3.93,1.53,1.25433
3.95,1.53,1.25433
3.97,1.53,1.25509
3.99,1.53,1.25462
4.01,1.53,1.25389
4.03,1.53,1.25506
4.05,1.53,1.25782
4.19,1.53,1.25779
4.21,1.53,1.25631
4.23,1.53,1.25539
4.25,1.53,1.25412
4.27,1.53,1.2527
4.29,1.53,1.25255
4.31,1.53,1.25314
4.33,1.53,1.25559
4.65,1.53,1.25903
4.71,1.53,1.25876
4.73,1.53,1.25701
4.75,1.53,1.2558
4.77,1.53,1.25272
4.79,1.53,1.25512
4.81,1.53,1.25356
4.83,1.53,1.25341
4.85,1.53,1.25372
4.87,1.53,1.25321
4.89,1.53,1.25263
4.91,1.53,1.25161
4.93,1.53,1.25038
4.95,1.53,1.25019
3.83,1.55,1.25148
3.85,1.55,1.25431
3.87,1.55,1.25444
3.89,1.55,1.25335
3.91,1.55,1.25285
3.93,1.55,1.25351
3.95,1.55,1.25348
3.97,1.55,1.25336
3.99,1.55,1.25368
4.01,1.55,1.25305
4.03,1.55,1.25259
4.05,1.55,1.25328
4.07,1.55,1.25531
4.09,1.55,1.25769
4.11,1.55,1.25974
4.21,1.55,1.25922
4.23,1.55,1.25683
4.25,1.55,1.25517
4.27,1.55,1.25436
4.29,1.55,1.25356
4.31,1.55,1.25187
4.33,1.55,1.25162
4.35,1.55,1.25427
4.37,1.55,1.25871
4.65,1.55,1.25933
4.67,1.55,1.258
4.69,1.55,1.25894
4.71,1.55,1.25808
4.73,1.55,1.25549
4.75,1.55,1.25551
4.77,1.55,1.25412
4.79,1.55,1.25492
4.81,1.55,1.2534
4.83,1.55,1.25154
4.85,1.55,1.25372
4.87,1.55,1.2512
4.89,1.55,1.25228
4.91,1.55,1.25191
3.85,1.57,1.25014
3.87,1.57,1.25409
3.89,1.57,1.25375
3.91,1.57,1.25256
3.93,1.57,1.25213
3.95,1.57,1.25255
3.97,1.57,1.2529
3.99,1.57,1.25249
4.01,1.57,1.2524
4.03,1.57,1.25183
4.05,1.57,1.25106
4.07,1.57,1.25085
4.09,1.57,1.25262
4.11,1.57,1.25514
4.13,1.57,1.25787
4.25,1.57,1.25732
4.27,1.57,1.25604
4.29,1.57,1.25466
4.31,1.57,1.25356
4.33,1.57,1.25208
4.35,1.57,1.25116
4.37,1.57,1.25169
4.39,1.57,1.25409
4.67,1.57,1.25776
4.69,1.57,1.2576
4.71,1.57,1.25775
4.73,1.57,1.25508
4.75,1.57,1.25431
4.77,1.57,1.2549
4.79,1.57,1.25468
4.81,1.57,1.25355
4.83,1.57,1.25243
4.85,1.57,1.25311
4.87,1.57,1.25084
4.89,1.57,1.25021
4.91,1.57,1.25085
3.89,1.59,1.25122
3.91,1.59,1.2524
3.93,1.59,1.25153
3.95,1.59,1.25139
3.97,1.59,1.25223
3.99,1.59,1.25204
4.01,1.59,1.25099
4.03,1.59,1.25094
4.05,1.59,1.25091
4.07,1.59,1.25022
4.11,1.59,1.25119
4.13,1.59,1.25344
4.15,1.59,1.25613
4.17,1.59,1.25893
4.19,1.59,1.25983
4.27,1.59,1.25841
4.29,1.59,1.25652
4.31,1.59,1.25434
4.33,1.59,1.25249
4.35,1.59,1.25184
4.37,1.59,1.25062
4.39,1.59,1.25055
4.41,1.59,1.25055
4.43,1.59,1.25241
4.45,1.59,1.25944
4.67,1.59,1.25866
4.69,1.59,1.25572
4.71,1.59,1.25679
4.73,1.59,1.25612
4.75,1.59,1.25434
4.77,1.59,1.2542
4.79,1.59,1.25488
4.81,1.59,1.25342
4.85,1.59,1.25317
4.87,1.59,1.25187
4.91,1.59,1.25071
3.93,1.61,1.25115
3.95,1.61,1.25104
3.97,1.61,1.25116
3.99,1.61,1.25166
4.01,1.61,1.25033
4.05,1.61,1.25049
4.15,1.61,1.25184
4.17,1.61,1.25523
4.19,1.61,1.25699
4.21,1.61,1.25873
4.29,1.61,1.25873
4.31,1.61,1.2571
4.33,1.61,1.25403
4.35,1.61,1.25224
4.37,1.61,1.25157
4.39,1.61,1.2512
4.45,1.61,1.25136
4.47,1.61,1.25721
4.65,1.61,1.25965
4.67,1.61,1.25947
4.69,1.61,1.25786
4.71,1.61,1.2558
4.73,1.61,1.25619
4.75,1.61,1.25446
4.77,1.61,1.25238
4.79,1.61,1.25395
4.81,1.61,1.25311
4.85,1.61,1.25252
4.87,1.61,1.25085
3.95,1.63,1.25014
3.97,1.63,1.25089
3.99,1.63,1.25071
4.01,1.63,1.25068
4.17,1.63,1.25045
4.19,1.63,1.25317
4.21,1.63,1.25523
4.23,1.63,1.25713
4.25,1.63,1.25805
4.31,1.63,1.25973
